ply
format ascii 1.0
element vertex 1240
property float x
property float y
property float z
property uchar red
property uchar green
property uchar blue
end_header
1.17571 0.162572 3.5254 255 255 255
-1.27293 0.304552 1.78552 255 255 255
0.59472 0.42491 2.82687 255 255 255
0.09131 0.453376 2.26461 255 255 255
-1.01254 -0.294195 2.59372 255 255 255
-0.0863088 -0.00341615 2.43938 255 255 255
1.16486 0.306087 3.43041 255 255 255
-1.20469 -0.253361 2.81393 255 255 255
0.654657 -0.435657 3.20457 255 255 255
0.00799351 0.484987 2.02616 255 255 255
-0.877528 -0.537044 2.47502 255 255 255
-1.02555 -0.463025 2.62861 255 255 255
-0.772951 -0.47489 2.32065 255 255 255
-0.706101 -0.4626 2.35057 255 255 255
-0.693981 -0.459819 2.35468 255 255 255
-0.611565 -0.487427 2.42964 255 255 255
-0.490705 -0.488169 2.52229 255 255 255
-0.9405 -0.395536 2.51064 255 255 255
-0.881238 -0.364204 2.4536 255 255 255
-0.475682 -0.428055 2.54316 255 255 255
-0.297464 -0.427641 2.51029 255 255 255
-0.297339 -0.427687 2.51053 255 255 255
-0.689204 -0.325254 2.3297 255 255 255
-0.530062 -0.319107 2.45702 255 255 255
-0.927971 -0.217837 2.46742 255 255 255
-0.927927 -0.2178 2.46727 255 255 255
-0.475469 -0.286268 2.51198 255 255 255
-0.18479 -0.340359 2.42622 255 255 255
0.181499 -0.309925 2.75586 255 255 255
-0.438141 -0.18817 2.51626 255 255 255
-0.680146 -0.133444 2.28572 255 255 255
-0.919847 -0.0691179 2.11598 255 255 255
-0.913044 -0.0693547 2.12322 255 255 255
-0.59869 -0.114066 2.34889 255 255 255
-0.442288 -0.120723 2.49028 255 255 255
-0.886634 -0.0357937 2.12966 255 255 255
-0.490509 -0.0708076 2.43076 255 255 255
0.589846 -0.166012 3.07754 255 255 255
-0.996688 -0.00292059 2.04827 255 255 255
-0.914018 -0.00976402 2.10402 255 255 255
-0.914018 -0.00976402 2.10402 255 255 255
-0.586598 -0.0124557 2.33096 255 255 255
0.291852 -0.0799772 2.78141 255 255 255
0.724517 -0.0525934 3.15661 255 255 255
1.04481 -0.0750764 3.44975 255 255 255
2.34187 -0.181875 4.20345 255 255 255
3.31491 -0.276857 4.23728 255 255 255
-1.01112 0.0503216 2.02564 255 255 255
-0.896686 0.0592328 2.09486 255 255 255
-1.0103 0.115296 2.00845 255 255 255
-0.994915 0.134934 2.01266 255 255 255
-0.942911 0.121939 2.0495 255 255 255
-0.930338 0.139958 2.05111 255 255 255
-0.920104 0.136593 2.05772 255 255 255
-0.920523 0.136719 2.05836 255 255 255
-0.651748 0.124862 2.22375 255 255 255
-0.98918 0.15523 2.01096 255 255 255
-0.984531 0.158962 2.01268 255 255 255
-0.935284 0.154403 2.04479 255 255 255
-0.426767 0.165775 2.40661 255 255 255
-0.992222 0.198222 1.99635 255 255 255
-0.885 0.209136 2.06218 255 255 255
-0.797472 0.187396 2.12832 255 255 255
-0.453763 0.201253 2.37549 255 255 255
-0.926693 0.211751 2.03549 255 255 255
-0.909375 0.220418 2.04277 255 255 255
0.894279 0.251268 3.25666 255 255 255
1.18036 0.284038 3.43036 255 255 255
-0.952953 0.244824 2.00943 255 255 255
-0.932984 0.303178 2.00531 255 255 255
-0.960424 0.336342 1.97927 255 255 255
-0.934936 0.320307 2.0011 255 255 255
1.62696 0.293939 2.53118 255 255 255
-0.998239 0.350571 1.95165 255 255 255
-0.980195 0.341951 1.96471 255 255 255
-0.976791 0.35775 1.96378 255 255 255
-0.879951 0.350504 2.02802 255 255 255
-0.875265 0.34607 2.0318 255 255 255
-0.860762 0.346186 2.02796 255 255 255
-0.864211 0.363359 2.02521 255 255 255
-0.913361 0.399218 1.99318 255 255 255
-0.913361 0.399218 1.99318 255 255 255
-0.604435 0.353467 1.90499 255 255 255
-0.887465 0.410874 2.00565 255 255 255
-0.864881 0.433177 1.96345 255 255 255
-0.849423 0.423179 1.94874 255 255 255
-0.896371 0.470239 1.8436 255 255 255
1.7011 0.566612 2.34524 255 255 255
-0.125036 0.532836 1.75913 255 255 255
-0.455144 0.444962 1.33691 255 255 255
-0.590875 0.380099 1.04825 255 255 255
-0.937106 -0.499709 2.52951 255 255 255
-0.906819 -0.521498 2.49933 255 255 255
-0.789346 -0.506133 2.33087 255 255 255
-1.04255 -0.451733 2.64765 255 255 255
-0.957014 -0.484107 2.54635 255 255 255
-0.967509 -0.467064 2.54473 255 255 255
-0.905961 -0.427432 2.47319 255 255 255
-0.968978 -0.405846 2.54852 255 255 255
-0.935179 -0.39023 2.509 255 255 255
-0.889593 -0.403343 2.46189 255 255 255
-0.39944 -0.379652 2.58995 255 255 255
-1.01337 -0.204801 2.58025 255 255 255
-0.464451 -0.275237 2.52105 255 255 255
-0.222655 -0.295842 2.39727 255 255 255
-0.978869 -0.123429 2.51792 255 255 255
-1.02881 -0.0679013 2.56783 255 255 255
-0.65435 -0.0539075 2.28688 255 255 255
-0.976913 0.00753942 2.05823 255 255 255
-0.960653 0.0299449 2.06184 255 255 255
-0.991385 0.10755 2.02218 255 255 255
-0.905129 0.0931148 2.08282 255 255 255
-0.907029 0.104903 2.07635 255 255 255
-0.907002 0.104788 2.07643 255 255 255
-0.390255 0.100139 2.46172 255 255 255
-0.969075 0.142261 2.02656 255 255 255
-0.954734 0.125737 2.03441 255 255 255
-0.871605 0.211349 2.07313 255 255 255
-0.983891 0.228019 1.99456 255 255 255
-0.966003 0.214178 2.00929 255 255 255
-0.900139 0.220461 2.04972 255 255 255
-0.886324 0.221204 2.05862 255 255 255
-0.879788 0.216648 2.06398 255 255 255
-0.174723 0.252874 2.25541 255 255 255
2.72032 0.26104 3.68072 255 255 255
2.69522 0.294209 3.54209 255 255 255
-0.957136 0.31109 1.98883 255 255 255
-0.957136 0.311098 1.98888 255 255 255
-0.944272 0.312591 1.99628 255 255 255
-0.942899 0.332039 1.99286 255 255 255
0.411597 0.36368 2.73906 255 255 255
1.01603 0.426879 3.26695 255 255 255
1.44859 0.376127 2.86152 255 255 255
-0.962723 0.387815 1.96412 255 255 255
-0.964986 0.426462 1.95244 255 255 255
-0.737308 0.395882 1.73609 255 255 255
0.734753 0.567664 2.47204 255 255 255
1.50897 0.612969 2.86483 255 255 255
0.234844 0.517522 2.16068 255 255 255
-0.936403 -0.513007 2.53266 255 255 255
-0.401625 -0.491492 2.6202 255 255 255
-0.420679 -0.446905 2.58768 255 255 255
-0.918307 -0.2175 2.46269 255 255 255
-0.479031 -0.295377 2.5108 255 255 255
-1.0154 -0.154994 2.57274 255 255 255
-0.410355 -0.192933 2.53877 255 255 255
-0.545594 -0.16566 2.39626 255 255 255
-0.545566 -0.166479 2.3991 255 255 255
-0.825759 -0.102586 2.19364 255 255 255
-0.509086 -0.117887 2.43385 255 255 255
-0.0814251 -0.175773 2.48845 255 255 255
1.47697 -0.286205 3.88654 255 255 255
-0.94229 -0.0559467 2.09736 255 255 255
-0.380678 -0.094592 2.52557 255 255 255
0.0811517 -0.137927 2.6026 255 255 255
0.816613 -0.129504 3.2621 255 255 255
-0.968685 0.0154497 2.06219 255 255 255
-0.968666 0.0153916 2.06226 255 255 255
-0.604926 0.0237339 2.30429 255 255 255
-0.876879 0.0662382 2.10846 255 255 255
-1.0083 0.12648 2.00469 255 255 255
-0.896992 0.135601 2.07579 255 255 255
-0.684818 0.133075 2.18776 255 255 255
-0.683296 0.133343 2.19223 255 255 255
-0.899179 0.170219 2.06003 255 255 255
-0.856167 0.211532 2.08215 255 255 255
2.45911 0.252266 3.93863 255 255 255
-0.959069 0.262024 2.00011 255 255 255
-0.476088 0.26894 2.33059 255 255 255
-0.0670217 0.28242 2.33753 255 255 255
-0.93187 0.332555 1.99853 255 255 255
-0.668556 0.326723 2.13785 255 255 255
-0.72725 0.357164 2.03256 255 255 255
-0.986804 0.397884 1.94715 255 255 255
-0.96013 0.377432 1.96969 255 255 255
-0.845516 0.402429 2.00837 255 255 255
-0.92398 0.436049 1.97469 255 255 255
-0.842974 0.402837 1.94239 255 255 255
0.742483 0.578896 2.40823 255 255 255
-0.570267 0.377619 1.03714 255 255 255
-0.567876 0.380992 1.04652 255 255 255
-0.674197 -0.559968 2.4092 255 255 255
-0.96942 -0.381136 2.53977 255 255 255
-0.434853 -0.32643 2.56001 255 255 255
-0.433416 -0.299666 2.55369 255 255 255
-0.86693 0.0759982 2.11368 255 255 255
-0.861006 0.115982 2.10348 255 255 255
-0.989631 0.167604 2.00771 255 255 255
-0.956704 0.234688 2.00229 255 255 255
1.29828 0.334631 3.53681 255 255 255
-0.920763 0.358596 1.99919 255 255 255
-0.91217 0.386167 1.99825 255 255 255
-0.719841 0.366229 1.79835 255 255 255
-0.654468 0.397629 1.68902 255 255 255
0.889469 0.554715 2.70405 255 255 255
-0.817098 -0.546871 2.39038 255 255 255
-0.889467 -0.473838 2.45104 255 255 255
-0.923749 -0.447251 2.4859 255 255 255
-0.988775 -0.4066 2.56214 255 255 255
-1.01952 -0.351873 2.61208 255 255 255
0.0121684 -0.110649 2.54685 255 255 255
-0.927211 0.0432525 2.07982 255 255 255
-0.652935 0.146504 2.21428 255 255 255
-0.958293 0.204162 2.0147 255 255 255
-0.938857 0.344672 1.99105 255 255 255
-0.925159 0.39091 1.98895 255 255 255
-0.445198 0.399465 1.93072 255 255 255
-0.445163 0.399548 1.93117 255 255 255
-0.970042 -0.490545 2.56505 255 255 255
-0.89937 -0.456025 2.45988 255 255 255
-0.982998 -0.429492 2.5534 255 255 255
-1.03617 -0.3853 2.62595 255 255 255
-0.762798 -0.342151 2.27992 255 255 255
-0.669063 -0.38953 2.3662 255 255 255
-0.366768 -0.334817 2.58168 255 255 255
-0.615506 -0.240219 2.38115 255 255 255
-0.191762 -0.132115 2.36208 255 255 255
-0.757712 0.13799 2.17709 255 255 255
-0.99283 0.257883 1.98071 255 255 255
-0.40247 0.352816 2.0573 255 255 255
-0.921095 0.445491 1.95926 255 255 255
0.0177757 0.488508 2.10109 255 255 255
0.0177757 0.488508 2.10109 255 255 255
-0.989522 -0.37811 2.56049 255 255 255
-0.552233 -0.455028 2.47925 255 255 255
-0.55222 -0.455056 2.47932 255 255 255
-0.340692 -0.361403 2.56863 255 255 255
-0.340685 -0.361402 2.56864 255 255 255
-0.36594 -0.295024 2.57258 255 255 255
-0.86581 0.396927 2.01689 255 255 255
-0.996267 -0.274792 2.56679 255 255 255
-0.749628 0.0442388 2.16521 255 255 255
-0.749795 0.0440948 2.1638 255 255 255
-0.858669 -0.344842 2.42279 255 255 255
-0.858669 -0.344842 2.42279 255 255 255
-0.458283 0.0121968 2.4473 255 255 255
-0.64086 0.354654 1.88195 255 255 255
0.223827 -0.420334 2.80773 255 255 255
-0.691718 -0.184985 2.2842 255 255 255
-0.264414 -0.154309 2.43599 255 255 255
-0.702766 -0.118925 2.24716 255 255 255
-0.971103 0.090614 2.04091 255 255 255
0.646552 0.27426 2.97576 255 255 255
0.157065 0.334793 2.51633 255 255 255
0.156552 0.335305 2.51347 255 255 255
-0.0841426 -0.433471 2.54001 255 255 255
0.217991 0.483058 2.2829 255 255 255
-0.843522 0.228865 2.08405 255 255 255
-0.537627 0.428809 1.68336 255 255 255
-0.180921 -0.0421692 2.37763 255 255 255
0.117636 -0.400101 2.73857 255 255 255
0.964432 -0.244704 3.42453 255 255 255
2.58731 -0.367761 3.96913 255 255 255
2.49955 -0.333952 4.0267 255 255 255
1.38663 -0.107265 3.75677 255 255 255
2.62078 -0.15163 3.88931 255 255 255
2.62074 -0.13683 3.8838 255 255 255
2.65463 -0.00626861 3.81343 255 255 255
-0.0976619 0.188788 2.35257 255 255 255
1.41656 0.27794 2.93723 255 255 255
1.5636 0.345224 2.64372 255 255 255
1.66361 0.3089 2.5157 255 255 255
1.64307 0.331153 2.48957 255 255 255
1.68815 0.390175 2.39596 255 255 255
1.64669 0.500097 2.46331 255 255 255
-0.0884477 0.468257 2.0342 255 255 255
1.61272 0.501646 2.54873 255 255 255
1.58358 0.197877 2.61594 255 255 255
-0.0458202 -0.517165 2.61447 255 255 255
2.46961 0.199567 3.99337 255 255 255
1.40794 0.292213 2.96955 255 255 255
-0.318128 0.447531 1.81923 255 255 255
0.710418 -0.199254 3.19831 255 255 255
-0.783862 -0.0459943 2.20128 255 255 255
-0.0199845 0.193124 2.43827 255 255 255
-1.13598 0.44986 1.83806 255 255 255
-1.27865 -0.209791 2.90467 255 255 255
0.653518 0.257205 2.99259 255 255 255
0.26817 0.523146 2.17962 255 255 255
-0.883211 -0.466761 2.43784 255 255 255
-0.490371 -0.523013 2.55974 255 255 255
-0.730725 -0.235881 2.25475 255 255 255
-0.774956 -0.036202 2.20216 255 255 255
-0.380157 -0.0915456 2.52749 255 255 255
-0.379879 -0.091593 2.53019 255 255 255
2.29077 -0.30066 4.30306 255 255 255
1.78678 0.258552 4.05532 255 255 255
-0.379307 0.277539 2.34296 255 255 255
-0.379307 0.277539 2.34296 255 255 255
-0.0439677 0.293962 2.34133 255 255 255
-0.548224 -0.501391 2.48903 255 255 255
-0.693822 0.353176 1.88368 255 255 255
0.431733 -0.19985 2.94448 255 255 255
1.61826 0.27092 3.85183 255 255 255
1.61826 0.27092 3.85183 255 255 255
0.56266 -0.162375 3.03672 255 255 255
0.56266 -0.162375 3.03672 255 255 255
-0.338266 -0.379587 2.55973 255 255 255
0.482991 -0.38364 3.03893 255 255 255
0.88628 -0.381359 3.39097 255 255 255
2.61499 -0.342093 3.88292 255 255 255
2.40588 -0.192948 4.12923 255 255 255
0.55646 0.0858791 2.95746 255 255 255
-0.227277 0.360216 2.1223 255 255 255
1.15096 0.547087 2.87302 255 255 255
-0.00425484 0.497194 2.01591 255 255 255
1.64912 -0.0627928 3.96275 255 255 255
-0.41441 0.354009 2.04735 255 255 255
0.453178 0.580506 2.13312 255 255 255
1.19517 0.472274 3.36202 255 255 255
0.436128 0.222605 2.79857 255 255 255
-0.507258 -0.116332 2.4343 255 255 255
-0.486174 0.424823 1.79013 255 255 255
-0.186701 0.426419 2.0369 255 255 255
1.4531 0.599324 2.75877 255 255 255
0.361089 -0.235372 2.90748 255 255 255
0.549109 -0.219063 3.04126 255 255 255
1.45188 -0.305144 3.87058 255 255 255
0.467142 0.015404 2.93849 255 255 255
1.19103 0.00650261 3.55447 255 255 255
1.18992 0.00659944 3.54876 255 255 255
2.43004 0.0694801 3.96285 255 255 255
0.700585 0.196509 3.02891 255 255 255
1.13128 0.243772 3.37323 255 255 255
1.17906 0.315994 3.43794 255 255 255
1.17906 0.315994 3.43794 255 255 255
1.2494 0.307308 3.49581 255 255 255
1.15117 0.357987 3.4067 255 255 255
0.79619 0.363275 3.07492 255 255 255
1.00265 0.455514 3.13027 255 255 255
0.535326 0.479489 2.59301 255 255 255
1.59615 0.473282 2.56794 255 255 255
1.6951 0.461064 2.37707 255 255 255
1.66227 0.495226 2.46695 255 255 255
0.634219 0.548218 2.48396 255 255 255
1.4865 0.582315 2.7631 255 255 255
1.64629 0.561531 2.45506 255 255 255
1.64653 0.561735 2.45628 255 255 255
0.798416 0.588327 2.43104 255 255 255
1.50366 0.655821 2.63203 255 255 255
1.58871 0.617977 2.55648 255 255 255
1.69988 0.566865 2.34921 255 255 255
2.59873 -0.366113 3.92606 255 255 255
2.52763 -0.243876 3.99671 255 255 255
1.65078 0.221006 2.48594 255 255 255
1.69132 0.204851 2.40442 255 255 255
1.6961 0.276678 2.39245 255 255 255
1.70387 0.277827 2.40776 255 255 255
1.61284 0.493054 2.5286 255 255 255
1.30387 0.402632 3.52137 255 255 255
1.56727 0.605677 2.6145 255 255 255
1.46627 0.639879 2.62889 255 255 255
1.31217 -0.331711 3.7499 255 255 255
1.49426 0.381615 2.77132 255 255 255
1.68867 0.446072 2.3902 255 255 255
0.793241 0.5826 2.43148 255 255 255
1.66335 0.456786 2.43485 255 255 255
1.59372 0.504995 2.56498 255 255 255
-0.749946 -0.331367 2.27544 255 255 255
-0.0391466 -0.0370075 2.48573 255 255 255
0.344675 0.00151772 2.79653 255 255 255
-0.336939 0.149161 2.40955 255 255 255
1.37703 0.192922 3.16905 255 255 255
0.181835 0.277343 2.56829 255 255 255
-0.527356 0.348057 2.25677 255 255 255
0.449422 0.451827 2.53007 255 255 255
0.62698 -0.0119697 3.03583 255 255 255
-0.769781 0.170014 2.15023 255 255 255
1.32312 0.0698127 3.64351 255 255 255
0.40881 0.391007 2.68957 255 255 255
0.496924 0.299801 2.80434 255 255 255
1.33958 0.277634 3.08518 255 255 255
-0.28584 0.0249967 2.43145 255 255 255
-0.950864 0.174103 2.03028 255 255 255
0.485484 0.337607 2.84871 255 255 255
-0.227603 0.418002 2.06226 255 255 255
-0.932218 0.000946825 2.08665 255 255 255
0.176699 -0.0769162 2.69895 255 255 255
1.59467 0.116269 3.85646 255 255 255
-0.346571 -0.279677 2.55973 255 255 255
-0.640614 0.0897861 2.234 255 255 255
-0.241181 0.374947 2.11555 255 255 255
-0.628218 0.0294569 2.28417 255 255 255
-0.607191 0.391025 1.09045 255 255 255
-1.01083 -0.485753 2.61784 255 255 255
-0.780614 0.156451 2.1484 255 255 255
0.343051 0.063317 2.75067 255 255 255
0.53125 0.554595 2.34235 255 255 255
-0.140266 -0.504756 2.49238 255 255 255
0.0923578 -0.251851 2.65746 255 255 255
-0.33293 0.475782 1.72209 255 255 255
0.507312 0.0152159 2.9474 255 255 255
-0.103207 0.1071 2.3663 255 255 255
-1.00198 0.204706 1.98864 255 255 255
-1.02699 0.0975801 2.00322 255 255 255
0.20829 -0.425066 2.80147 255 255 255
1.37154 0.183198 3.03313 255 255 255
-0.180437 0.227334 2.25775 255 255 255
1.63325 0.301496 2.58417 255 255 255
0.131171 -0.0698363 2.64721 255 255 255
0.507408 -0.00896364 2.96319 255 255 255
1.05065 -0.0508352 3.44846 255 255 255
1.3904 -0.0777627 3.75178 255 255 255
1.045 0.0902383 3.39943 255 255 255
0.411446 0.370545 2.74725 255 255 255
1.34587 0.402254 3.06013 255 255 255
0.682999 0.602516 2.27961 255 255 255
0.015309 0.505615 1.94886 255 255 255
0.015309 0.505615 1.94886 255 255 255
-0.12949 -0.263037 2.46863 255 255 255
0.624055 0.612512 2.22473 255 255 255
1.45118 0.0879656 3.75591 255 255 255
1.10975 0.364945 3.35967 255 255 255
0.802366 0.510554 2.7025 255 255 255
0.802366 0.510554 2.7025 255 255 255
0.706307 -0.435611 3.24869 255 255 255
0.0288923 0.363864 2.29955 255 255 255
1.00729 0.532429 2.83826 255 255 255
-0.242244 0.466341 1.46412 255 255 255
-0.419333 0.112492 2.41172 255 255 255
1.2521 -0.0576899 3.61731 255 255 255
0.59181 -0.339287 3.09969 255 255 255
-0.700765 -0.493608 2.34947 255 255 255
-0.7936 -0.0407621 2.19562 255 255 255
2.15484 -0.0868346 4.41133 255 255 255
2.15432 -0.0866538 4.40956 255 255 255
-0.986603 0.209631 1.99622 255 255 255
-0.826858 0.429507 1.76761 255 255 255
0.904361 0.633615 2.40688 255 255 255
-0.952716 0.33 1.98495 255 255 255
-0.820845 0.433254 1.76382 255 255 255
1.274 0.2641 3.20438 255 255 255
1.11514 -0.233112 3.52761 255 255 255
0.57111 0.158937 2.9422 255 255 255
1.58303 -0.0981558 3.94321 255 255 255
1.58303 -0.0981558 3.94321 255 255 255
-0.237694 -0.364627 2.42968 255 255 255
-0.237694 -0.364627 2.42968 255 255 255
-0.438122 0.381576 1.93731 255 255 255
0.431733 -0.19985 2.94448 255 255 255
0.321038 0.160512 2.71437 255 255 255
2.62189 -0.119206 3.88008 255 255 255
2.62199 -0.103381 3.87611 255 255 255
2.19922 0.0167728 4.36863 255 255 255
1.56676 0.116266 2.67494 255 255 255
0.646938 0.266587 2.98772 255 255 255
1.49289 0.321517 2.78047 255 255 255
0.47217 0.441941 2.59455 255 255 255
1.48242 0.474226 2.78665 255 255 255
1.41046 0.537737 2.91781 255 255 255
1.61081 0.210036 3.8556 255 255 255
0.847096 0.572913 2.55266 255 255 255
-0.041598 -0.405611 2.5826 255 255 255
-0.890761 -0.537223 2.48583 255 255 255
-0.640303 -0.54519 2.4407 255 255 255
-0.801698 -0.460322 2.3496 255 255 255
-0.264615 -0.569112 2.50545 255 255 255
-0.808249 -0.438658 2.35628 255 255 255
-0.298893 -0.515527 2.54535 255 255 255
-0.167543 -0.524235 2.49662 255 255 255
-1.11635 -0.384415 2.70856 255 255 255
-0.998301 -0.36924 2.58398 255 255 255
-0.99888 -0.369148 2.58242 255 255 255
-0.900374 -0.396227 2.46948 255 255 255
-0.786971 -0.393025 2.31876 255 255 255
-0.767424 -0.377187 2.29352 255 255 255
-0.714814 -0.376164 2.30998 255 255 255
-0.270821 -0.445906 2.47648 255 255 255
-0.0513148 -0.464467 2.57446 255 255 255
-0.0495919 -0.465088 2.57946 255 255 255
-0.638591 -0.386445 2.40247 255 255 255
-1.01359 -0.305128 2.59628 255 255 255
0.0309709 -0.40336 2.63245 255 255 255
0.105424 -0.392006 2.71303 255 255 255
-1.09736 -0.245159 2.68288 255 255 255
-1.09751 -0.245069 2.68029 255 255 255
-0.774847 -0.220487 2.26871 255 255 255
-0.496748 -0.253828 2.48416 255 255 255
0.0634658 -0.274047 2.63105 255 255 255
0.0634964 -0.273934 2.63111 255 255 255
0.501804 -0.340575 3.03312 255 255 255
-1.29476 -0.121574 2.89068 255 255 255
-1.20747 -0.107863 2.78744 255 255 255
0.200797 -0.253321 2.76358 255 255 255
0.404377 -0.299776 2.9445 255 255 255
0.496648 -0.267991 3.01782 255 255 255
-0.572671 -0.128583 2.37384 255 255 255
-0.323079 -0.17301 2.50696 255 255 255
-0.244253 -0.182573 2.40688 255 255 255
-0.243221 -0.167861 2.40283 255 255 255
0.311858 -0.188057 2.81822 255 255 255
1.36354 -0.277533 3.74765 255 255 255
1.63341 -0.295898 4.01214 255 255 255
-0.77002 -0.100548 2.22926 255 255 255
-0.740676 -0.104229 2.2171 255 255 255
-0.68591 -0.100558 2.26565 255 255 255
-0.523243 -0.110822 2.40114 255 255 255
-0.0064279 -0.0724111 2.52476 255 255 255
0.104357 -0.123577 2.63284 255 255 255
0.450434 -0.10713 2.93634 255 255 255
0.450614 -0.107179 2.93679 255 255 255
0.638281 -0.116087 3.09609 255 255 255
1.22002 -0.148694 3.61918 255 255 255
-0.803073 -0.0144577 2.18306 255 255 255
0.612235 -0.0363292 3.05378 255 255 255
1.85954 -0.071295 4.15633 255 255 255
2.2391 -0.117937 4.3174 255 255 255
2.239 -0.117965 4.31685 255 255 255
-1.23946 0.0871205 2.78855 255 255 255
-0.799913 0.0147765 2.17283 255 255 255
-0.453014 0.0266541 2.44862 255 255 255
-0.00216209 -0.00512 2.51231 255 255 255
0.0308114 -0.00586117 2.53753 255 255 255
0.55389 0.0258747 2.97575 255 255 255
1.13598 -0.00925205 3.50127 255 255 255
2.19371 -0.0299686 4.36885 255 255 255
-0.456844 0.0787731 2.41611 255 255 255
0.430114 0.0394467 2.87719 255 255 255
0.43256 0.075487 2.86968 255 255 255
-0.941928 0.107518 2.0525 255 255 255
-0.941931 0.107489 2.05269 255 255 255
-0.952068 0.11145 2.04809 255 255 255
-0.952724 0.111003 2.04549 255 255 255
-0.755174 0.0912554 2.18234 255 255 255
-0.377095 0.108588 2.4544 255 255 255
1.33923 0.122915 3.15064 255 255 255
-1.02601 0.144362 1.9891 255 255 255
-0.977425 0.13572 2.02204 255 255 255
-0.906515 0.163515 2.06097 255 255 255
-0.744587 0.145743 2.16867 255 255 255
-0.744443 0.162733 2.16414 255 255 255
-0.66868 0.14467 2.19873 255 255 255
1.28092 0.214358 3.55901 255 255 255
1.2776 0.212659 3.55202 255 255 255
1.60754 0.253105 3.83605 255 255 255
1.6099 0.253417 3.83989 255 255 255
1.78886 0.211515 4.01434 255 255 255
2.01493 0.240098 4.2126 255 255 255
-0.632163 0.188927 2.2169 255 255 255
-0.316854 0.222514 2.38238 255 255 255
0.777129 0.247611 3.10076 255 255 255
-1.11096 0.213197 1.91525 255 255 255
-1.1116 0.213309 1.91388 255 255 255
-0.721911 0.211703 2.13529 255 255 255
-0.360584 0.255183 2.33193 255 255 255
1.33765 0.371848 3.08315 255 255 255
1.36856 0.312811 3.00079 255 255 255
-1.08902 0.296624 1.90476 255 255 255
-1.06966 0.319953 1.91252 255 255 255
-0.650566 0.325055 2.04573 255 255 255
-0.180459 0.344307 2.15343 255 255 255
0.102183 0.380631 2.35271 255 255 255
0.188508 0.374542 2.49339 255 255 255
0.471566 0.42742 2.62212 255 255 255
-1.3135 0.335742 1.75304 255 255 255
-1.31399 0.336777 1.75796 255 255 255
-0.640058 0.346268 1.96123 255 255 255
-0.314828 0.363437 2.08492 255 255 255
-0.0879762 0.407596 2.17419 255 255 255
0.319967 0.438974 2.44214 255 255 255
0.319934 0.438801 2.44223 255 255 255
-1.15823 0.38946 1.83421 255 255 255
-0.457842 0.379773 1.92632 255 255 255
-0.460091 0.378127 1.92099 255 255 255
-0.482655 0.397136 1.85587 255 255 255
-0.00408651 0.451764 2.15329 255 255 255
-0.746195 0.399593 1.7492 255 255 255
-0.575958 0.406384 1.73905 255 255 255
-0.298095 0.421688 1.96854 255 255 255
-0.0268566 0.461771 2.14255 255 255 255
0.00887668 0.457407 2.16126 255 255 255
-0.0309993 0.479902 2.07408 255 255 255
0.0925469 0.474234 2.2065 255 255 255
0.0280775 0.484394 2.11005 255 255 255
0.648342 0.550231 2.42165 255 255 255
0.882973 0.573943 2.56676 255 255 255
0.98622 0.594356 2.62791 255 255 255
0.986203 0.594351 2.62793 255 255 255
1.1085 0.6065 2.70501 255 255 255
-1.22709 0.448552 1.776 255 255 255
-0.506308 0.431608 1.7798 255 255 255
-0.440753 0.437312 1.74483 255 255 255
0.829731 0.598442 2.45081 255 255 255
0.915872 0.604078 2.50503 255 255 255
-0.524555 0.4525 1.6092 255 255 255
-0.442041 0.45429 1.73841 255 255 255
0.742548 0.606491 2.30968 255 255 255
0.776025 0.603868 2.3316 255 255 255
0.776233 0.603935 2.33218 255 255 255
-0.96447 0.504688 1.70221 255 255 255
-0.539997 0.463593 1.53304 255 255 255
-0.666943 0.421416 1.20949 255 255 255
-1.10253 0.403375 1.00885 255 255 255
-0.96156 0.398718 1.04501 255 255 255
-0.961724 0.398444 1.04472 255 255 255
-0.936619 0.343764 0.818482 255 255 255
-0.701067 -0.535081 2.37781 255 255 255
-0.363921 -0.503693 2.61256 255 255 255
-0.362569 -0.505276 2.62023 255 255 255
-0.151162 -0.545748 2.52989 255 255 255
-0.317469 -0.452884 2.53841 255 255 255
-0.235174 -0.477184 2.44644 255 255 255
-0.308977 -0.360949 2.52996 255 255 255
0.25127 -0.39898 2.83076 255 255 255
-1.18749 -0.126193 2.77366 255 255 255
-0.262068 -0.19227 2.43377 255 255 255
-0.826496 -0.102894 2.18929 255 255 255
-0.0897193 -0.115316 2.47767 255 255 255
-1.10855 0.00270051 2.64529 255 255 255
-0.246794 -0.0946137 2.3997 255 255 255
0.430445 -0.112695 2.92317 255 255 255
1.98451 -0.127506 4.27267 255 255 255
-0.984708 0.00925482 2.05383 255 255 255
-0.656713 -0.0261685 2.27616 255 255 255
-0.656412 -0.0260842 2.27644 255 255 255
-0.0596273 -0.0545242 2.47351 255 255 255
0.41917 -0.0437884 2.89829 255 255 255
0.644014 -0.0453579 3.08717 255 255 255
1.39691 -0.0719693 3.75288 255 255 255
-0.30708 0.00713439 2.46469 255 255 255
0.155878 0.0235715 2.63794 255 255 255
-1.03342 0.0698855 2.00329 255 255 255
-0.636015 0.0631156 2.23584 255 255 255
-1.27846 0.193553 2.82045 255 255 255
-1.12169 0.0974523 1.93607 255 255 255
-0.143346 0.0873665 2.31988 255 255 255
1.65993 0.204419 3.90646 255 255 255
-0.727834 0.173738 2.14232 255 255 255
-0.475512 0.189457 2.36107 255 255 255
-0.195198 0.196756 2.26456 255 255 255
1.58315 0.295613 3.80816 255 255 255
-1.23824 0.221624 1.83591 255 255 255
1.68073 0.425404 3.85247 255 255 255
-0.0651997 0.332477 2.28534 255 255 255
-0.675193 0.339193 2.07141 255 255 255
-0.617281 0.335342 1.96857 255 255 255
0.47459 0.431037 2.65042 255 255 255
-1.24305 0.329245 1.79887 255 255 255
-0.592902 0.351699 1.91508 255 255 255
0.20339 0.424251 2.36369 255 255 255
0.439398 0.429321 2.56977 255 255 255
0.41883 0.44955 2.50161 255 255 255
-0.987148 0.39774 1.94592 255 255 255
-0.74963 0.387164 1.94599 255 255 255
-0.770816 0.38046 1.8584 255 255 255
-0.773151 0.394648 1.85843 255 255 255
0.943404 0.546196 2.73504 255 255 255
0.206355 0.489242 2.22082 255 255 255
0.43842 0.525908 2.36922 255 255 255
-0.720201 0.416225 1.57119 255 255 255
-0.691814 0.43008 1.58985 255 255 255
-0.493081 0.448268 1.7063 255 255 255
-0.0184548 0.51872 1.83899 255 255 255
-0.870161 0.460959 1.47075 255 255 255
-0.7905 0.460224 1.33325 255 255 255
-1.39028 0.406768 0.99869 255 255 255
-1.21067 0.371156 0.868209 255 255 255
0.0579253 -0.543289 2.69618 255 255 255
-0.94426 -0.393939 2.513 255 255 255
-0.878012 -0.36261 2.45051 255 255 255
-0.878043 -0.362573 2.45035 255 255 255
-0.754179 -0.328689 2.27494 255 255 255
-1.20339 -0.23701 2.80445 255 255 255
-0.415856 -0.264912 2.55411 255 255 255
0.0234258 -0.316954 2.61098 255 255 255
-1.2959 -0.125855 2.89493 255 255 255
-0.517042 -0.194178 2.43934 255 255 255
0.042465 -0.270534 2.6112 255 255 255
-0.551886 -0.153612 2.3882 255 255 255
0.301829 -0.18817 2.81342 255 255 255
0.0582582 -0.159357 2.59337 255 255 255
0.604444 -0.16973 3.09294 255 255 255
1.81022 -0.152019 4.121 255 255 255
-0.374199 0.00277194 2.50169 255 255 255
1.57461 -0.0660131 3.90665 255 255 255
1.57461 -0.0660131 3.90665 255 255 255
-1.22531 0.123485 2.43497 255 255 255
-0.444822 0.108081 2.39556 255 255 255
1.89029 0.263609 4.09727 255 255 255
-1.16432 0.169248 1.89221 255 255 255
-0.377949 0.228557 2.34879 255 255 255
-0.272055 0.290413 2.33408 255 255 255
-0.0572507 0.255786 2.35888 255 255 255
1.35332 0.32311 3.11201 255 255 255
0.48615 0.427657 2.63687 255 255 255
-0.912974 0.385529 1.99491 255 255 255
0.230139 0.405363 2.42111 255 255 255
0.512788 0.454669 2.61706 255 255 255
0.528858 0.473901 2.57711 255 255 255
-0.715687 0.411242 1.64913 255 255 255
0.797783 0.59933 2.34435 255 255 255
0.153268 0.446533 1.45304 255 255 255
-0.50174 0.385474 1.06236 255 255 255
-1.38765 0.400342 0.995755 255 255 255
-1.22583 0.314688 0.663215 255 255 255
-0.590222 -0.423135 2.44253 255 255 255
-0.878444 -0.362089 2.44749 255 255 255
-0.877979 -0.362052 2.44847 255 255 255
-0.79871 -0.365974 2.34374 255 255 255
-0.489741 -0.367672 2.52056 255 255 255
1.23537 -0.337491 3.69899 255 255 255
-0.363635 -0.180526 2.55238 255 255 255
-0.892362 -0.0167133 2.12086 255 255 255
0.522853 0.00862024 2.96084 255 255 255
-0.207884 0.0481451 2.27741 255 255 255
0.752006 0.0512561 3.14061 255 255 255
0.754943 0.0516437 3.14791 255 255 255
-1.05595 0.0897101 1.98592 255 255 255
1.57865 0.292447 3.81381 255 255 255
-0.722649 0.30439 2.10487 255 255 255
1.37694 0.483881 3.55798 255 255 255
-0.900482 0.345817 2.01527 255 255 255
-0.258833 0.352051 2.11157 255 255 255
0.266929 0.457055 2.43671 255 255 255
0.236714 0.468488 2.35507 255 255 255
-0.169739 0.453866 2.00958 255 255 255
1.04184 0.594909 2.74635 255 255 255
1.04334 0.595304 2.74793 255 255 255
-1.14546 0.448407 1.82977 255 255 255
-1.11451 0.454648 1.84532 255 255 255
-0.778651 0.42864 1.59287 255 255 255
0.35261 0.567365 2.06626 255 255 255
-1.24507 0.497466 1.75275 255 255 255
-0.244981 0.405053 1.20752 255 255 255
-0.837979 -0.517524 2.41119 255 255 255
-1.13959 -0.40705 2.73379 255 255 255
-1.15017 -0.265543 2.73777 255 255 255
-0.826361 -0.29604 2.36643 255 255 255
-0.301795 -0.214098 2.49372 255 255 255
-0.352169 -0.157214 2.53302 255 255 255
0.486449 -0.195581 3.00491 255 255 255
-1.18328 -0.0251068 2.75581 255 255 255
-0.656443 0.108022 2.21085 255 255 255
-0.45353 0.100094 2.38901 255 255 255
-0.45353 0.100094 2.38901 255 255 255
0.461218 0.146854 2.84149 255 255 255
1.03432 0.19707 3.33328 255 255 255
1.04234 0.198172 3.34603 255 255 255
-0.593817 0.241049 2.23606 255 255 255
-0.593977 0.240638 2.2335 255 255 255
0.468595 0.414151 2.71726 255 255 255
0.164598 0.502625 2.19048 255 255 255
-0.685873 -0.543329 2.39133 255 255 255
-0.79827 -0.469172 2.34588 255 255 255
-0.388589 -0.548316 2.65975 255 255 255
-1.20991 -0.410326 2.85327 255 255 255
-0.604749 -0.402332 2.42822 255 255 255
-1.17167 -0.316778 2.77474 255 255 255
-1.01952 -0.181283 2.58156 255 255 255
-1.01932 -0.181211 2.58335 255 255 255
-0.227309 -0.20782 2.39372 255 255 255
-0.671486 -0.0434025 2.26352 255 255 255
-0.747629 -0.000205963 2.19728 255 255 255
0.56974 0.451993 2.68245 255 255 255
-0.0978263 0.477192 2.03597 255 255 255
-0.0398819 0.488402 2.09879 255 255 255
-1.06205 0.331384 0.656146 255 255 255
1.57285 0.0829945 3.94661 255 255 255
1.35775 0.283545 3.11358 255 255 255
-0.156448 0.467112 1.99526 255 255 255
-0.991683 0.291986 0.582163 255 255 255
0.395705 0.0194757 2.84315 255 255 255
-0.25617 -0.488614 2.46071 255 255 255
-0.2563 -0.488628 2.46043 255 255 255
-0.464447 -0.408139 2.55109 255 255 255
-0.0719836 -0.406636 2.56415 255 255 255
-0.0154841 -0.36101 2.60696 255 255 255
-1.12126 -0.232071 2.70284 255 255 255
0.57142 -0.287726 3.09265 255 255 255
1.00514 -0.333087 3.46257 255 255 255
-1.28999 -0.0529677 2.8772 255 255 255
1.02773 -0.117083 3.45301 255 255 255
-0.00634364 -0.0605295 2.51988 255 255 255
-0.852056 0.0436063 2.1286 255 255 255
-0.599982 0.149937 2.25892 255 255 255
-0.173936 0.143261 2.28709 255 255 255
-0.839886 0.213389 2.08957 255 255 255
-0.839398 0.213402 2.08907 255 255 255
-0.208218 0.341808 2.14047 255 255 255
-0.098628 0.388174 2.17033 255 255 255
0.0912004 0.431827 2.28667 255 255 255
-0.00644729 0.452953 2.14918 255 255 255
-0.00644857 0.452977 2.14918 255 255 255
0.196194 0.505162 2.1463 255 255 255
-1.05479 0.380305 0.88628 255 255 255
-0.951918 0.208335 0.255298 255 255 255
0.100463 -0.150144 2.63076 255 255 255
0.208026 0.345662 2.56865 255 255 255
0.46164 0.378132 2.80555 255 255 255
0.664683 0.447207 2.88945 255 255 255
-0.662262 0.352884 1.97217 255 255 255
-0.97818 0.434825 1.94254 255 255 255
-0.598428 0.422756 1.72112 255 255 255
-0.212526 0.476653 1.88258 255 255 255
0.216727 0.501902 2.22893 255 255 255
-0.923815 0.25804 0.414682 255 255 255
-0.352873 0.43264 1.88338 255 255 255
-0.374778 -0.531127 2.62962 255 255 255
-0.827706 -0.363355 2.38655 255 255 255
0.118301 0.460554 2.2258 255 255 255
-1.36797 0.397635 1.69992 255 255 255
-0.994562 0.374535 0.879931 255 255 255
-0.465813 -0.102186 2.4662 255 255 255
-0.79501 0.19387 2.12619 255 255 255
-0.328338 -0.424424 2.54392 255 255 255
-0.73546 -0.287005 2.26704 255 255 255
-1.05933 -0.199055 2.63916 255 255 255
-0.16651 -0.156498 2.38974 255 255 255
2.54777 -0.360838 4.00799 255 255 255
2.56081 -0.362139 4.0258 255 255 255
-0.567417 -0.0991494 2.37581 255 255 255
2.47105 0.045146 4.2353 255 255 255
-1.0305 0.122954 1.99212 255 255 255
1.81805 0.214596 4.06076 255 255 255
-0.866915 0.185436 2.07858 255 255 255
1.56838 0.240893 2.64804 255 255 255
-0.634871 0.33929 2.16197 255 255 255
-0.328788 0.344958 2.0853 255 255 255
-1.07894 0.390875 1.88882 255 255 255
-1.04658 0.399843 1.90366 255 255 255
-0.615972 0.362953 1.82829 255 255 255
-0.176136 0.0836119 2.29871 255 255 255
0.539387 0.121675 2.94387 255 255 255
-1.02127 0.237817 1.96627 255 255 255
-0.176658 0.236952 2.26419 255 255 255
1.34071 -0.0668818 3.68957 255 255 255
-0.640024 0.435632 1.5429 255 255 255
-0.433211 -0.012592 2.47383 255 255 255
0.301624 0.518429 2.28064 255 255 255
2.22084 0.248393 4.2446 255 255 255
0.421391 0.372315 2.76933 255 255 255
-0.134227 -0.331763 2.48794 255 255 255
-0.441955 -0.278144 2.54339 255 255 255
0.48872 -0.252847 3.01913 255 255 255
1.96369 0.0536856 4.19891 255 255 255
1.32465 0.083852 3.16949 255 255 255
1.40572 0.0762752 3.00922 255 255 255
1.32657 0.106739 3.16863 255 255 255
1.33334 0.193375 3.15269 255 255 255
1.48237 0.21106 2.83664 255 255 255
-0.100984 -0.116749 2.4585 255 255 255
2.15382 -0.181037 4.39792 255 255 255
1.44089 0.148582 3.2594 255 255 255
-0.0100975 -0.0942956 2.52307 255 255 255
1.34052 0.376993 3.0857 255 255 255
-0.0931931 -0.47924 2.53794 255 255 255
-0.293755 -0.434926 2.50088 255 255 255
-0.290669 -0.289119 2.48249 255 255 255
0.632745 -0.277619 3.14445 255 255 255
0.301357 -0.114548 2.79856 255 255 255
0.171785 -0.047191 2.67503 255 255 255
-0.29615 0.0779349 2.33749 255 255 255
-0.530879 0.136565 2.32683 255 255 255
-0.397347 0.241023 2.37547 255 255 255
0.389995 0.313125 2.74257 255 255 255
0.965121 0.405718 3.25771 255 255 255
-1.26743 0.493289 1.73632 255 255 255
-0.782983 0.437555 1.38154 255 255 255
-1.57386 0.300627 1.86677 255 255 255
-1.14814 0.284253 1.8719 255 255 255
-0.722096 0.31713 2.10051 255 255 255
-0.885048 -0.414205 2.43318 255 255 255
-0.62072 -0.340877 2.39927 255 255 255
-1.18568 -0.220483 2.79382 255 255 255
1.21786 -0.226361 3.63075 255 255 255
-0.690524 0.173373 2.16549 255 255 255
-0.828542 -0.553752 2.41761 255 255 255
-0.354367 -0.0356546 2.50992 255 255 255
0.430356 0.239744 2.80982 255 255 255
-0.4059 0.349511 2.05268 255 255 255
-0.323344 -0.541769 2.5695 255 255 255
-0.279471 -0.347338 2.48716 255 255 255
0.193053 -0.437142 2.77909 255 255 255
0.193094 -0.43702 2.77929 255 255 255
0.162953 -0.41067 2.75603 255 255 255
0.162837 -0.410757 2.75631 255 255 255
-0.442415 -0.278647 2.54498 255 255 255
-0.452891 -0.270575 2.53304 255 255 255
0.459048 -0.4057 2.99993 255 255 255
0.738889 -0.423194 3.26911 255 255 255
0.102939 -0.26605 2.68578 255 255 255
0.18209 -0.254305 2.74212 255 255 255
-0.465216 -0.0960136 2.46449 255 255 255
0.528483 -0.221116 3.03464 255 255 255
0.611642 -0.172116 3.10138 255 255 255
2.67854 -0.409908 3.84939 255 255 255
2.71202 -0.410533 3.80037 255 255 255
-0.162551 -0.0505516 2.3731 255 255 255
2.48821 -0.291253 4.0188 255 255 255
2.47776 -0.227439 4.05564 255 255 255
2.47336 -0.227007 4.04823 255 255 255
1.65017 -0.072773 3.96765 255 255 255
1.65017 -0.072773 3.96765 255 255 255
3.28408 -0.176314 4.21295 255 255 255
3.69653 -0.193826 4.60874 255 255 255
3.98365 -0.186326 4.78709 255 255 255
-0.181334 0.0770037 2.2944 255 255 255
1.24433 0.0201806 3.595 255 255 255
0.0307454 0.105823 2.46447 255 255 255
-0.316082 0.163338 2.40929 255 255 255
2.61483 0.0623358 3.8275 255 255 255
-0.186438 0.184787 2.26925 255 255 255
-0.295398 0.24733 2.39178 255 255 255
1.37293 0.195757 3.03096 255 255 255
-0.268442 0.301123 2.31987 255 255 255
-0.0940761 0.271676 2.31436 255 255 255
1.62561 0.303667 2.53958 255 255 255
1.78339 0.302314 2.22874 255 255 255
1.74365 0.443276 2.37499 255 255 255
1.71732 0.437237 2.3372 255 255 255
1.78902 0.420357 2.20007 255 255 255
1.49379 0.617308 2.67925 255 255 255
1.67309 0.584487 2.39748 255 255 255
1.77273 0.532198 2.21768 255 255 255
-0.301017 0.470982 1.82115 255 255 255
0.154006 0.533787 2.03362 255 255 255
0.295727 0.548847 2.11854 255 255 255
-0.33293 0.475782 1.72209 255 255 255
0.131371 -0.195431 2.67635 255 255 255
-0.364263 -0.111327 2.53257 255 255 255
-0.415238 0.0493106 2.46326 255 255 255
0.738241 0.0518761 3.12984 255 255 255
-0.273025 0.219981 2.3812 255 255 255
0.185887 0.396352 2.38909 255 255 255
0.330588 0.1728 2.73165 255 255 255
-0.370389 0.372769 2.02054 255 255 255
-0.316657 0.434124 1.90031 255 255 255
-0.168207 0.503773 1.7623 255 255 255
0.396406 -0.110451 2.89112 255 255 255
2.3896 -0.0296268 4.13779 255 255 255
2.39008 -0.0297502 4.13871 255 255 255
0.994843 0.569601 2.76759 255 255 255
0.315088 0.503148 2.29292 255 255 255
0.152678 0.500558 2.11507 255 255 255
0.026422 0.346024 2.30703 255 255 255
-0.0661266 -0.00858479 2.44123 255 255 255
2.38846 0.0109077 4.12696 255 255 255
0.0431178 0.478816 2.12441 255 255 255
-0.251936 0.453416 1.85588 255 255 255
-0.194238 -0.540502 2.47411 255 255 255
1.42338 0.4723 2.89925 255 255 255
1.46435 0.455983 2.82788 255 255 255
0.233394 -0.198389 2.78179 255 255 255
-0.212285 0.319568 2.21942 255 255 255
1.04347 0.615194 2.5841 255 255 255
-0.783998 -0.516456 2.32151 255 255 255
-0.57694 -0.516119 2.47477 255 255 255
-0.576791 -0.515986 2.47386 255 255 255
-0.997454 -0.376842 2.57523 255 255 255
-0.37559 -0.43082 2.60918 255 255 255
-1.23172 -0.368148 2.8358 255 255 255
-0.186919 -0.372047 2.43588 255 255 255
-0.0936612 -0.371702 2.54835 255 255 255
-1.04257 -0.310878 2.64492 255 255 255
-0.301728 -0.306801 2.5169 255 255 255
-0.088118 -0.333304 2.53266 255 255 255
0.0576429 -0.31439 2.63659 255 255 255
0.366622 -0.333901 2.92421 255 255 255
-0.571985 -0.261915 2.41072 255 255 255
-0.394401 -0.268522 2.56812 255 255 255
-0.368094 -0.267974 2.57465 255 255 255
-0.290907 -0.28237 2.50155 255 255 255
-0.305959 -0.210806 2.49547 255 255 255
0.0542429 -0.227823 2.60845 255 255 255
0.054247 -0.227737 2.60807 255 255 255
0.231163 -0.238466 2.78181 255 255 255
0.348893 -0.252073 2.88728 255 255 255
0.325223 -0.225404 2.84983 255 255 255
0.417555 -0.263617 2.95522 255 255 255
-1.24981 -0.168596 2.85521 255 255 255
-0.641547 -0.15233 2.3216 255 255 255
-0.492338 -0.172851 2.46289 255 255 255
-0.492341 -0.17283 2.46295 255 255 255
-0.307497 -0.172516 2.49217 255 255 255
-0.20329 -0.179155 2.36394 255 255 255
0.0435445 -0.20375 2.58925 255 255 255
0.0948091 -0.202804 2.65688 255 255 255
0.0785449 -0.164168 2.61107 255 255 255
0.381993 -0.189834 2.9142 255 255 255
-0.722874 -0.111691 2.22402 255 255 255
-0.257144 -0.132025 2.41876 255 255 255
0.457955 -0.116729 2.94502 255 255 255
-0.671403 -0.089248 2.28446 255 255 255
-0.403923 -0.0639431 2.49798 255 255 255
-0.356509 -0.065537 2.51108 255 255 255
0.543699 -0.0956791 3.01814 255 255 255
0.17249 -0.0258894 2.66792 255 255 255
0.486647 -0.0232184 2.95657 255 255 255
-2.34359 0.0742421 2.87035 255 255 255
-2.32063 0.0657337 2.89313 255 255 255
-2.31696 0.0793373 2.86592 255 255 255
-0.0732196 0.0103464 2.44181 255 255 255
0.498718 -0.00139243 2.95124 255 255 255
-2.28074 0.105922 2.89861 255 255 255
-0.851917 0.0432405 2.1279 255 255 255
-0.537224 0.0466547 2.34543 255 255 255
-0.00274783 0.0331982 2.4856 255 255 255
0.143817 0.0551686 2.60889 255 255 255
0.50031 0.0602906 2.93206 255 255 255
-2.27303 0.163087 2.70371 255 255 255
-2.23875 0.158041 3.18341 255 255 255
-1.92844 0.140205 2.74296 255 255 255
-1.92844 0.140205 2.74296 255 255 255
0.421879 0.110654 2.8413 255 255 255
0.441895 0.0995678 2.85942 255 255 255
0.449306 0.101717 2.8756 255 255 255
-2.27038 0.186878 2.76324 255 255 255
-1.74629 0.304794 3.66692 255 255 255
-1.64103 0.281845 3.52377 255 255 255
-0.204568 0.114115 2.29218 255 255 255
0.271627 0.154359 2.68103 255 255 255
-1.65552 0.294601 3.5433 255 255 255
-1.65612 0.295997 3.55071 255 255 255
-0.0193382 0.200136 2.43623 255 255 255
-0.565192 0.199521 2.2742 255 255 255
-0.148337 0.201822 2.29843 255 255 255
-0.193179 0.219716 2.25685 255 255 255
0.0145518 0.228691 2.43456 255 255 255
-0.375554 0.282478 2.33737 255 255 255
-1.21054 0.255923 1.83522 255 255 255
-0.290519 0.311267 2.34933 255 255 255
-0.202469 0.298645 2.2481 255 255 255
-0.202469 0.298645 2.2481 255 255 255
0.202299 0.333346 2.55941 255 255 255
0.410708 0.344793 2.74547 255 255 255
0.393054 0.381116 2.71637 255 255 255
-1.23066 0.405883 2.71342 255 255 255
-1.09259 0.28637 1.90561 255 255 255
0.134779 0.356545 2.495 255 255 255
-1.68393 0.267656 1.54023 255 255 255
-1.62997 0.275143 1.57365 255 255 255
-1.54615 0.301046 1.80361 255 255 255
-1.46937 0.288658 1.66454 255 255 255
-1.62634 0.30663 1.56736 255 255 255
-1.62634 0.30663 1.56736 255 255 255
-1.32428 0.325472 1.74386 255 255 255
-0.349677 0.375057 2.03431 255 255 255
-0.348602 0.398662 1.99306 255 255 255
-1.9522 0.305239 1.3732 255 255 255
-1.95183 0.304954 1.37169 255 255 255
-1.89929 0.318463 1.40448 255 255 255
-1.81461 0.322853 1.44878 255 255 255
-0.125157 0.438775 2.07499 255 255 255
-1.97054 0.326077 1.3524 255 255 255
-1.97053 0.325827 1.35242 255 255 255
-1.87074 0.32516 1.41581 255 255 255
-1.71854 0.353862 1.50156 255 255 255
-1.72006 0.353023 1.49634 255 255 255
-1.32551 0.410948 1.72076 255 255 255
-1.32617 0.410808 1.71787 255 255 255
-1.32816 0.417178 1.71898 255 255 255
-1.27153 0.400435 1.76138 255 255 255
-1.27153 0.400435 1.76138 255 255 255
-0.729947 0.392747 1.6568 255 255 255
-1.88491 0.35252 1.39888 255 255 255
-1.74931 0.374239 1.47386 255 255 255
-1.74944 0.374265 1.4739 255 255 255
-1.66385 0.394405 1.5199 255 255 255
-0.0210227 0.502831 1.92402 255 255 255
-1.95076 0.392025 1.33819 255 255 255
-1.67005 0.420914 1.50819 255 255 255
-1.63934 0.430992 1.52373 255 255 255
-1.60204 0.424068 1.54673 255 255 255
-1.31489 0.458411 1.7148 255 255 255
-0.777722 0.437879 1.59671 255 255 255
-0.185482 0.491138 1.81994 255 255 255
-0.153529 0.507193 1.75947 255 255 255
-1.96677 0.410894 1.33302 255 255 255
-1.96671 0.410967 1.33413 255 255 255
-1.95158 0.412417 1.34305 255 255 255
-1.90119 0.423137 1.36826 255 255 255
-1.90122 0.423171 1.36835 255 255 255
-1.5883 0.478066 1.54019 255 255 255
-0.657925 0.442562 1.4431 255 255 255
-0.658689 0.441893 1.44384 255 255 255
-0.342578 0.486171 1.63868 255 255 255
-1.98715 0.423622 1.31878 255 255 255
-1.98712 0.423688 1.31901 255 255 255
-1.9556 0.432799 1.33611 255 255 255
-1.9555 0.432522 1.33595 255 255 255
-1.96839 0.441811 1.32417 255 255 255
-1.91291 0.442339 1.34424 255 255 255
-1.90481 0.447352 1.35995 255 255 255
-1.86605 0.46389 1.37674 255 255 255
-1.84266 0.458763 1.39349 255 255 255
-1.65923 0.469598 1.49704 255 255 255
-1.6529 0.496153 1.48437 255 255 255
-1.44411 0.531584 1.60489 255 255 255
-1.93974 0.467236 1.33708 255 255 255
-1.93943 0.467023 1.33446 255 255 255
-1.93376 0.483133 1.33277 255 255 255
-1.87371 0.468396 1.357 255 255 255
-1.60859 0.531486 1.51088 255 255 255
-1.04007 0.436953 1.19981 255 255 255
-1.03555 0.442473 1.22003 255 255 255
-1.68695 0.478366 1.27034 255 255 255
-1.95561 0.464078 1.14687 255 255 255
-1.1245 -0.451149 2.74572 255 255 255
-0.998093 -0.385207 2.57191 255 255 255
0.193464 -0.414463 2.79937 255 255 255
-0.96507 -0.361546 2.53457 255 255 255
-0.228828 -0.379734 2.4188 255 255 255
-0.835084 -0.212155 2.36457 255 255 255
0.231343 -0.215213 2.77494 255 255 255
0.390813 -0.175985 2.91995 255 255 255
-0.932989 -0.137732 2.44846 255 255 255
-1.3009 -0.0355005 2.88184 255 255 255
-0.569327 -0.0512876 2.35669 255 255 255
-2.36638 0.0525077 2.97441 255 255 255
-2.28483 0.121718 2.97612 255 255 255
-2.23385 0.144265 3.10307 255 255 255
-0.617433 0.057352 2.28134 255 255 255
-0.00509721 0.0494603 2.49309 255 255 255
-2.17086 0.158237 3.15349 255 255 255
-0.0754786 0.0839144 2.38896 255 255 255
-2.23915 0.164118 2.6742 255 255 255
-1.62053 0.287312 3.60695 255 255 255
0.437092 0.194956 2.81789 255 255 255
-2.14965 0.211541 2.60007 255 255 255
-2.14206 0.227085 2.63019 255 255 255
-1.72784 0.332299 3.56792 255 255 255
-1.68511 0.293997 3.56229 255 255 255
0.266732 0.320672 2.61756 255 255 255
-1.63907 0.407676 3.04581 255 255 255
-0.179547 0.307664 2.22906 255 255 255
-1.70832 0.311202 2.02245 255 255 255
-1.70632 0.31948 2.0046 255 255 255
-1.93195 0.25636 1.39619 255 255 255
-1.9247 0.255566 1.39918 255 255 255
-1.79053 0.271746 1.47516 255 255 255
-1.62729 0.289145 1.57407 255 255 255
-1.62729 0.289145 1.57407 255 255 255
-1.48001 0.288329 1.657 255 255 255
-1.85352 0.292235 1.43455 255 255 255
-1.6986 0.307414 1.52277 255 255 255
-1.62645 0.298546 1.56896 255 255 255
-0.487944 0.384677 1.90379 255 255 255
-1.80722 0.325957 1.45338 255 255 255
-0.928819 0.413099 1.97833 255 255 255
-0.727201 0.373534 1.80589 255 255 255
-1.95736 0.32465 1.3654 255 255 255
-1.95736 0.32465 1.3654 255 255 255
-1.87102 0.335145 1.41212 255 255 255
-1.81465 0.355079 1.43938 255 255 255
-1.31646 0.40904 1.72987 255 255 255
-1.99008 0.366732 1.33412 255 255 255
-1.9635 0.359554 1.35191 255 255 255
-1.9721 0.366675 1.34353 255 255 255
-1.92062 0.363559 1.37454 255 255 255
-1.88352 0.366796 1.39637 255 255 255
-1.61083 0.412124 1.54738 255 255 255
-1.16785 0.470899 1.80798 255 255 255
-1.92455 0.393161 1.36421 255 255 255
-1.89521 0.393209 1.38117 255 255 255
-1.81053 0.408337 1.42763 255 255 255
-1.73421 0.410411 1.4722 255 255 255
-1.70035 0.418429 1.49178 255 255 255
-1.69621 0.424459 1.49205 255 255 255
-1.66578 0.426171 1.51114 255 255 255
-1.57526 0.433201 1.56609 255 255 255
-1.57648 0.432496 1.56225 255 255 255
-1.57359 0.439965 1.56445 255 255 255
-1.57351 0.439851 1.56434 255 255 255
-1.5671 0.448436 1.56357 255 255 255
-1.91629 0.409563 1.36403 255 255 255
-1.91417 0.43259 1.35898 255 255 255
-1.36846 0.514277 1.66766 255 255 255
-1.25349 0.515481 1.73964 255 255 255
-1.78634 0.468165 1.42351 255 255 255
-1.60061 0.503288 1.52968 255 255 255
-1.52229 0.499356 1.57699 255 255 255
-1.91339 0.487944 1.346 255 255 255
-1.87036 0.48512 1.35592 255 255 255
-1.87125 0.486932 1.36192 255 255 255
-1.57205 0.445412 1.12836 255 255 255
-1.48189 0.448589 1.18482 255 255 255
-0.752848 -0.467418 2.29927 255 255 255
-0.272275 -0.493746 2.48272 255 255 255
-0.479748 -0.335663 2.52151 255 255 255
-0.348825 -0.372612 2.57631 255 255 255
-1.16777 -0.299343 2.76921 255 255 255
-1.16835 -0.298515 2.76444 255 255 255
-0.345898 -0.304232 2.56119 255 255 255
-0.738658 -0.124352 2.21229 255 255 255
-0.546206 -0.124008 2.39044 255 255 255
-2.34775 0.0608675 2.88328 255 255 255
-2.32058 0.0430707 2.8031 255 255 255
-1.03593 0.00731961 2.5374 255 255 255
-0.0748226 -0.0111253 2.44867 255 255 255
-0.788698 0.0205408 2.17737 255 255 255
-0.775751 0.0688961 2.17568 255 255 255
0.094947 0.152922 2.52178 255 255 255
-1.80629 0.340227 3.59682 255 255 255
-0.625931 0.282387 2.18712 255 255 255
-1.59601 0.274896 1.8858 255 255 255
-0.999667 0.328045 1.95716 255 255 255
-0.98947 0.331922 1.95998 255 255 255
-0.98954 0.331744 1.95939 255 255 255
-0.765426 0.390095 1.96004 255 255 255
-1.89986 0.296627 1.40518 255 255 255
-1.61683 0.343227 1.56281 255 255 255
-1.84711 0.331815 1.42758 255 255 255
-1.23892 0.418378 1.77207 255 255 255
-0.0777471 0.461902 2.04905 255 255 255
-0.0778284 0.46181 2.04875 255 255 255
-1.94986 0.364775 1.35811 255 255 255
-1.85539 0.379356 1.41057 255 255 255
-1.84952 0.37088 1.41555 255 255 255
-0.017621 0.508487 1.92542 255 255 255
-1.62156 0.433961 1.52824 255 255 255
-1.43521 0.46132 1.63773 255 255 255
-1.14825 0.516535 1.80811 255 255 255
-1.77913 0.447183 1.4375 255 255 255
-1.6876 0.454094 1.48523 255 255 255
-1.57429 0.463447 1.55553 255 255 255
-1.96035 0.437608 1.32963 255 255 255
-1.95019 0.439667 1.33592 255 255 255
-1.95016 0.439702 1.33547 255 255 255
-0.786767 0.4634 1.36787 255 255 255
-1.82776 0.49702 1.39617 255 255 255
-1.7917 0.498722 1.41337 255 255 255
-1.57101 0.523769 1.53801 255 255 255
-0.879263 0.292319 0.612873 255 255 255
-0.197331 -0.279563 2.39806 255 255 255
-0.239151 -0.205282 2.40053 255 255 255
-0.351537 -0.114817 2.52319 255 255 255
-0.141659 -0.0338008 2.38454 255 255 255
-2.30892 0.125899 2.80868 255 255 255
-2.18045 0.162622 3.08173 255 255 255
-2.09315 0.217715 3.14351 255 255 255
-1.70304 0.295853 3.60777 255 255 255
-1.35713 0.342015 3.06782 255 255 255
-0.205042 0.204207 2.27551 255 255 255
-0.214475 0.31626 2.26053 255 255 255
-0.709244 0.311484 2.10207 255 255 255
0.354023 0.385027 2.68133 255 255 255
-1.22022 0.325082 1.81158 255 255 255
-1.90085 0.282764 1.40728 255 255 255
-0.00684008 0.408244 2.22288 255 255 255
-1.89104 0.293101 1.4112 255 255 255
