ply
format ascii 1.0
element vertex 1064
property float x
property float y
property float z
property uchar red
property uchar green
property uchar blue
end_header
0.0010456 -0.00207288 0.0936118 255 255 255
0.00276243 0.00499437 0.0961172 255 255 255
0.00514533 0.000403145 0.0978628 255 255 255
0.00364781 -0.0020517 0.0962627 255 255 255
-0.000719206 -0.000541166 0.0952687 255 255 255
0.00339903 0.00142015 0.0967321 255 255 255
0.00083458 -0.00240829 0.0935263 255 255 255
0.000162919 -0.00186326 0.093494 255 255 255
0.00289386 -0.00134119 0.0959363 255 255 255
0.00441256 -0.00238133 0.0969573 255 255 255
0.00345377 0.00112791 0.0966551 255 255 255
0.0026861 -0.0013585 0.0959227 255 255 255
0.00242449 0.00303292 0.0949766 255 255 255
0.00411997 -0.00101487 0.0965711 255 255 255
0.0043838 -0.00136225 0.0967229 255 255 255
0.00673715 -0.00173298 0.0950759 255 255 255
0.00272027 0.00387841 0.0955692 255 255 255
0.0007873 -0.00172093 0.0935897 255 255 255
0.00342459 0.000993991 0.0965672 255 255 255
0.00691444 -0.0011819 0.0949902 255 255 255
0.00674012 -0.000738866 0.0948868 255 255 255
0.00458785 0.00191373 0.0976658 255 255 255
-0.000546938 -0.000436911 0.0955543 255 255 255
0.000495911 -0.00183583 0.0935644 255 255 255
0.00355766 0.000491582 0.096347 255 255 255
0.00363747 -0.00190115 0.096207 255 255 255
0.00359386 0.00537539 0.0960744 255 255 255
0.00361254 0.000828086 0.0965778 255 255 255
0.00532445 0.000374409 0.0978923 255 255 255
0.000388749 -0.00164721 0.0934719 255 255 255
0.00267066 0.00408866 0.0956395 255 255 255
0.00266082 0.00425687 0.0957099 255 255 255
0.00443153 -0.000628613 0.096952 255 255 255
-0.000618641 -0.00275008 0.0940315 255 255 255
0.000196225 0.00343754 0.0956734 255 255 255
0.000184977 -0.0017259 0.0934916 255 255 255
0.0048991 0.000899169 0.097587 255 255 255
0.000386304 -0.00210998 0.0934416 255 255 255
0.00354002 -0.0015413 0.0961095 255 255 255
0.00345104 -0.00107185 0.0959876 255 255 255
0.00304133 -0.00104218 0.0959864 255 255 255
0.00350835 -0.00140652 0.0960875 255 255 255
0.00338847 0.000309877 0.0962539 255 255 255
0.00393668 0.00146204 0.0972245 255 255 255
0.00237796 0.00353317 0.0953072 255 255 255
0.00443044 -0.00153444 0.0967095 255 255 255
0.00693158 -0.00150688 0.0950901 255 255 255
0.00330748 -0.00135263 0.0959603 255 255 255
0.00349888 -0.00124315 0.0960802 255 255 255
0.00675549 -0.000939482 0.0948952 255 255 255
0.00424817 0.00183893 0.0974683 255 255 255
0.00652559 -0.00249585 0.0952042 255 255 255
0.00364111 -0.000973855 0.0961779 255 255 255
0.00457861 -0.00220208 0.0967712 255 255 255
0.00657767 -0.00235474 0.0951897 255 255 255
0.00290582 -0.00107231 0.0959457 255 255 255
0.00316962 -0.00139456 0.0959508 255 255 255
0.00449877 -0.00202306 0.0967583 255 255 255
0.0025763 0.00391824 0.0955093 255 255 255
0.00457094 -0.00102159 0.0968534 255 255 255
0.00448813 -0.00188438 0.0967253 255 255 255
0.00449378 0.00174162 0.0975732 255 255 255
0.00336275 -0.00121085 0.0959811 255 255 255
0.00463129 0.001782 0.0975886 255 255 255
0.00411976 0.00177222 0.0974508 255 255 255
0.00230575 0.00402302 0.09539 255 255 255
0.00587663 0.00017433 0.0980339 255 255 255
0.00318133 -0.00104276 0.096004 255 255 255
0.00331049 -0.00104367 0.0959876 255 255 255
0.00417304 0.00142305 0.0972577 255 255 255
0.00409543 0.00154642 0.0972664 255 255 255
0.00515611 0.000817933 0.0977083 255 255 255
0.00323484 0.000115731 0.0960762 255 255 255
0.00326308 0.000948072 0.0963869 255 255 255
0.00310967 0.000430559 0.0960775 255 255 255
0.00517811 0.000953978 0.0976329 255 255 255
0.00464303 -0.00152395 0.0966441 255 255 255
0.00306374 -0.000909922 0.095999 255 255 255
0.00323035 0.000247107 0.09613 255 255 255
0.00431793 0.00139284 0.0972905 255 255 255
0.00423791 0.00156188 0.0972712 255 255 255
0.0048097 -0.00153166 0.0965292 255 255 255
0.00486126 0.00103857 0.0975556 255 255 255
0.00309966 4.65093e-05 0.0960077 255 255 255
0.00638819 -0.0025053 0.0951942 255 255 255
0.00523186 0.000669245 0.0977416 255 255 255
0.00522749 0.00173997 0.0976874 255 255 255
0.0021701 0.00399764 0.0953772 255 255 255
0.00225874 0.0038666 0.0953123 255 255 255
0.0047687 -0.0014037 0.0965826 255 255 255
0.00492421 0.00157644 0.0976307 255 255 255
0.00509114 0.00171169 0.0976437 255 255 255
0.00479801 0.00163543 0.0976671 255 255 255
0.00654873 -0.00130356 0.0948766 255 255 255
0.00514741 -0.00275616 0.0963493 255 255 255
0.00535958 0.000794071 0.0976318 255 255 255
-0.00112669 -0.000560976 0.0950441 255 255 255
0.00523294 0.00161687 0.0976151 255 255 255
0.00493716 -0.00138931 0.0965096 255 255 255
0.00547021 0.00163092 0.0977413 255 255 255
0.00540957 0.000590522 0.097687 255 255 255
0.00542461 0.00175423 0.0977769 255 255 255
0.00600305 0.000187617 0.0978456 255 255 255
0.00494462 0.00131065 0.0975217 255 255 255
0.00489513 -0.00126849 0.0965675 255 255 255
0.00190888 0.00430913 0.095374 255 255 255
0.00502693 0.00117929 0.0975577 255 255 255
0.00300764 0.00102948 0.0964714 255 255 255
0.00531223 0.00100129 0.0975998 255 255 255
0.00549493 0.000775157 0.0975738 255 255 255
0.00506277 0.00157914 0.0976149 255 255 255
0.00174375 0.00350366 0.0950659 255 255 255
0.0022453 0.00351847 0.0952635 255 255 255
0.00309419 0.000188366 0.0960362 255 255 255
0.00131005 0.00529527 0.0960835 255 255 255
0.00498112 -0.00152528 0.0963982 255 255 255
0.00306885 0.00059323 0.0961281 255 255 255
0.00691336 -0.0020381 0.0953173 255 255 255
0.00212258 0.00350633 0.0951888 255 255 255
0.00190029 0.00442552 0.095437 255 255 255
0.00293891 0.000487712 0.0960778 255 255 255
0.00666557 -0.00207172 0.0951622 255 255 255
0.00145146 0.0053151 0.0960956 255 255 255
0.00506671 -0.00137574 0.096387 255 255 255
0.00227682 0.00281402 0.094844 255 255 255
0.00241303 0.0027627 0.0948984 255 255 255
0.00642312 -0.00299088 0.095584 255 255 255
0.00217899 0.00215127 0.0950929 255 255 255
0.00240547 0.00290053 0.0949105 255 255 255
0.00278738 -0.000314207 0.0959416 255 255 255
0.00586899 0.000978789 0.0974429 255 255 255
0.00197039 0.00377398 0.095183 255 255 255
0.00167081 0.00362628 0.0951202 255 255 255
0.0057353 0.000972424 0.097502 255 255 255
0.00173304 0.00484547 0.0956959 255 255 255
0.00254085 0.0028254 0.0949671 255 255 255
0.000986735 3.23012e-05 0.0965088 255 255 255
0.00198945 0.00220499 0.0949709 255 255 255
0.000206679 0.000538943 0.0963197 255 255 255
0.00733442 0.000670575 0.0965615 255 255 255
0.000571624 0.00446787 0.0957321 255 255 255
7.61863e-05 0.000476844 0.0962846 255 255 255
0.00220618 0.00370004 0.0952657 255 255 255
0.00571334 0.00078651 0.0975479 255 255 255
0.00548784 0.000910819 0.0975547 255 255 255
0.00281189 -0.000183118 0.0958937 255 255 255
0.00233707 0.00367514 0.0952796 255 255 255
0.00633228 0.00124525 0.0974938 255 255 255
0.00772463 0.000492689 0.0966744 255 255 255
0.00605642 -0.00221911 0.0950766 255 255 255
0.00335021 0.00555435 0.0958934 255 255 255
0.000554125 0.00459406 0.0957538 255 255 255
0.00602482 -0.00273937 0.0953236 255 255 255
-0.00112988 -0.000168345 0.0956531 255 255 255
0.00138881 0.00454773 0.0955253 255 255 255
0.0026699 0.000464352 0.0960899 255 255 255
0.00184003 0.00376319 0.0951732 255 255 255
0.00655685 -0.00294074 0.0955661 255 255 255
0.00174739 0.00466615 0.0955849 255 255 255
0.00207669 0.00365561 0.0952313 255 255 255
-0.00114744 -0.000407191 0.0951367 255 255 255
0.00637597 0.00113298 0.0973402 255 255 255
0.0029422 -0.00020591 0.0959416 255 255 255
0.0017782 0.00430746 0.0953849 255 255 255
0.00628405 -0.00294909 0.0955338 255 255 255
0.00319737 -0.000826638 0.0960335 255 255 255
0.00091455 -0.00324102 0.0936829 255 255 255
0.001457 0.0051768 0.0959645 255 255 255
0.000622308 0.000339884 0.0964744 255 255 255
0.00049168 0.000248008 0.096411 255 255 255
0.00107768 -0.00345291 0.0938227 255 255 255
0.000522238 0.00378095 0.0954934 255 255 255
0.000923852 -0.00341941 0.0937248 255 255 255
0.00130924 -0.00335699 0.093824 255 255 255
0.00263847 0.00492253 0.0961026 255 255 255
-0.000185335 0.00039105 0.0962936 255 255 255
0.00767338 0.00071223 0.0966554 255 255 255
0.00280405 -5.03743e-05 0.0958982 255 255 255
0.00537671 0.00121865 0.0975727 255 255 255
0.00647454 -0.00178737 0.094973 255 255 255
0.00195282 0.00508854 0.0959672 255 255 255
0.00242686 0.00465796 0.0958592 255 255 255
0.00616903 -0.00276789 0.0953473 255 255 255
0.00592209 0.000728517 0.0974895 255 255 255
0.000370817 -0.00146547 0.0935887 255 255 255
0.00177203 0.00441878 0.0954907 255 255 255
0.00660519 -0.000720155 0.0948906 255 255 255
0.00208867 0.00382031 0.095251 255 255 255
0.00298428 -0.000357875 0.0959836 255 255 255
0.00573493 0.00142455 0.0976694 255 255 255
-0.00100443 -0.000153265 0.0956517 255 255 255
0.00200695 0.00232122 0.0948655 255 255 255
0.00200612 0.00480102 0.0957061 255 255 255
0.00299782 -0.000497139 0.0960342 255 255 255
0.00159271 0.00453118 0.0955086 255 255 255
0.001804 -0.000676242 0.0961945 255 255 255
5.03652e-05 0.000358995 0.0962151 255 255 255
0.00214287 0.00280365 0.0948739 255 255 255
0.00550797 0.00126346 0.0975358 255 255 255
0.00188316 0.00350865 0.0951154 255 255 255
0.00618943 -0.00220822 0.0950464 255 255 255
0.00293176 0.000638248 0.0961601 255 255 255
0.000187534 0.000669588 0.0963508 255 255 255
0.00614265 -0.00292664 0.09548 255 255 255
0.00630384 -0.00277547 0.0953493 255 255 255
-0.00114241 -0.000716973 0.0947698 255 255 255
0.00245436 0.00479565 0.0959576 255 255 255
0.00129778 -0.00367485 0.0939846 255 255 255
0.00616449 0.00123747 0.0974897 255 255 255
0.00655783 0.00138047 0.0975088 255 255 255
0.00038676 0.00376993 0.0955484 255 255 255
0.00641573 -0.00133952 0.09489 255 255 255
0.00143184 -0.00307546 0.0938716 255 255 255
0.000781508 -0.00334957 0.0937231 255 255 255
0.00133473 -0.00320308 0.0938281 255 255 255
0.000987477 -0.000103035 0.0965335 255 255 255
0.00605726 0.000351542 0.0975898 255 255 255
0.000629657 0.000216416 0.0965006 255 255 255
0.00679999 0.00100153 0.0969632 255 255 255
0.00195026 0.00462355 0.0955424 255 255 255
0.00187928 0.0047905 0.0956641 255 255 255
0.00545138 0.00105154 0.0975524 255 255 255
0.000893621 -0.00363682 0.0938983 255 255 255
0.000901174 -0.003809 0.0939515 255 255 255
0.00035204 0.000235819 0.0963643 255 255 255
0.00293402 -6.79989e-05 0.0959765 255 255 255
0.0016085 0.00473602 0.0956438 255 255 255
0.00646732 0.00125307 0.0974576 255 255 255
0.00658686 -0.00153209 0.0949151 255 255 255
0.00167041 -0.000687422 0.0962557 255 255 255
0.00206606 0.00293583 0.094912 255 255 255
0.00542112 0.00148834 0.0976675 255 255 255
0.00214176 0.00482613 0.095766 255 255 255
0.00314163 -0.000524291 0.0960825 255 255 255
0.000909344 -0.00310952 0.0936773 255 255 255
-0.000183297 0.00026285 0.0961833 255 255 255
0.00663914 -0.000146659 0.0951498 255 255 255
0.00194504 -0.000702198 0.096076 255 255 255
0.000782948 0.00104881 0.0966596 255 255 255
0.00211611 0.00467575 0.0956395 255 255 255
0.00552145 -0.00274973 0.0957256 255 255 255
0.000801112 5.49487e-05 0.0966146 255 255 255
-0.000922296 -0.000286879 0.0955079 255 255 255
0.00730369 0.000535874 0.0965734 255 255 255
0.00224832 0.00529954 0.0962505 255 255 255
0.000118975 0.00356165 0.0956665 255 255 255
0.000768705 -0.00321015 0.0936688 255 255 255
0.000183405 0.000264284 0.0962693 255 255 255
0.00130528 -0.00310601 0.0937763 255 255 255
0.00529732 0.0013574 0.0975839 255 255 255
-0.000316962 0.000351477 0.0961578 255 255 255
0.00159457 -0.00307659 0.0940322 255 255 255
0.0062021 -0.00234267 0.0951048 255 255 255
0.00374439 0.00524133 0.0962105 255 255 255
-0.000367452 4.56835e-05 0.0959616 255 255 255
0.00708336 0.00126331 0.0973473 255 255 255
0.00300781 -0.000628869 0.0960763 255 255 255
0.00618117 -0.00206338 0.0950032 255 255 255
0.00140495 -0.000620381 0.0963247 255 255 255
0.000427976 0.000677724 0.0964658 255 255 255
0.00222872 0.00193279 0.0951955 255 255 255
0.00107552 -0.00316675 0.0937121 255 255 255
0.00753625 0.000620421 0.0965603 255 255 255
0.00641478 0.00136873 0.097592 255 255 255
0.00561233 0.00158261 0.0977708 255 255 255
0.00572556 0.00111327 0.0975162 255 255 255
0.00641852 -0.00147445 0.0949032 255 255 255
0.00650448 -0.00279509 0.0954382 255 255 255
0.00328035 -0.000536005 0.0961051 255 255 255
0.000967677 0.00463349 0.0957087 255 255 255
0.00185267 0.00388175 0.0952045 255 255 255
0.00114789 -0.00331179 0.0937927 255 255 255
0.00209625 -0.000791553 0.0960754 255 255 255
0.00196005 0.00494517 0.0958318 255 255 255
0.00333314 -0.000802599 0.0960618 255 255 255
0.00315369 -0.000654719 0.0961086 255 255 255
0.00361183 0.00520651 0.0962604 255 255 255
0.00266008 6.65998e-06 0.0959253 255 255 255
0.00286661 7.52411e-05 0.0959855 255 255 255
-0.000411068 0.00019358 0.0960205 255 255 255
0.00208025 -0.000648364 0.0960495 255 255 255
0.00279936 0.000512282 0.0961153 255 255 255
0.00620624 0.00110869 0.0974029 255 255 255
0.00599357 0.0011569 0.0974711 255 255 255
0.00586189 0.00111801 0.0974773 255 255 255
0.00278784 0.00078303 0.0961868 255 255 255
0.00601508 0.000879228 0.0973987 255 255 255
0.00292037 0.000790844 0.0962741 255 255 255
0.00600258 -0.00287792 0.0955012 255 255 255
0.000472145 0.00359595 0.0954992 255 255 255
0.00545416 -0.00232421 0.0953363 255 255 255
0.00065568 0.00378612 0.0954304 255 255 255
0.00629281 -0.00311506 0.0956594 255 255 255
0.0056891 -0.00275519 0.0955178 255 255 255
0.00605817 0.000743963 0.0974287 255 255 255
0.00647507 -0.000756418 0.094931 255 255 255
0.00537117 -0.0020559 0.095397 255 255 255
0.00101065 0.000181203 0.0964484 255 255 255
6.14145e-05 0.000616902 0.0963376 255 255 255
0.00185025 0.00222592 0.0949632 255 255 255
0.00128539 -0.0035558 0.0938977 255 255 255
0.00113149 -6.28631e-05 0.096414 255 255 255
0.00320926 0.00559775 0.0959104 255 255 255
0.00559668 -0.00234139 0.0952736 255 255 255
0.00589137 -0.00273264 0.0953392 255 255 255
0.00245871 -0.000798957 0.0959736 255 255 255
0.000763228 0.00027069 0.0965074 255 255 255
0.0064381 -0.00313523 0.0956843 255 255 255
0.000545941 -0.00251015 0.093451 255 255 255
0.00222481 -0.00067511 0.0960297 255 255 255
0.00260396 -0.000618838 0.0960224 255 255 255
0.00634809 0.000993157 0.0972737 255 255 255
0.000752395 0.000439163 0.0964485 255 255 255
0.00588699 -0.00259093 0.0952679 255 255 255
0.00621738 0.000968718 0.0973684 255 255 255
0.00656514 -0.00308517 0.0956276 255 255 255
0.00592425 -0.00171971 0.0949441 255 255 255
0.00241146 0.0053882 0.0963791 255 255 255
0.00572733 -0.00232204 0.0951795 255 255 255
0.00261163 -0.00075409 0.0959945 255 255 255
0.00266872 -0.000125214 0.0959169 255 255 255
0.00643328 -0.00164351 0.0949559 255 255 255
0.00589991 -0.00193204 0.0949622 255 255 255
-7.20346e-05 0.000594432 0.0963745 255 255 255
0.00605368 -0.00208311 0.0950373 255 255 255
0.00121115 0.00462253 0.0955833 255 255 255
0.00591698 -0.00207408 0.0950317 255 255 255
0.00100599 0.0003157 0.0964229 255 255 255
-0.000454047 0.000336086 0.0960936 255 255 255
0.00578463 -0.0020451 0.0950547 255 255 255
0.00115348 9.21039e-05 0.0963817 255 255 255
0.00126777 -4.32774e-05 0.096334 255 255 255
0.00151098 0.00499869 0.0958274 255 255 255
0.00658933 0.00102787 0.0971612 255 255 255
0.00192985 0.00286905 0.094877 255 255 255
-0.000661542 0.000283422 0.0960195 255 255 255
-0.00082062 5.61054e-05 0.0959259 255 255 255
0.00213349 -0.000443462 0.0960071 255 255 255
0.00685505 -0.00186414 0.0951773 255 255 255
-0.00129671 -0.000415465 0.0952568 255 255 255
0.0057068 -0.00191241 0.0951045 255 255 255
0.00199577 -0.000452201 0.0960585 255 255 255
0.00579384 -0.00218545 0.0950885 255 255 255
0.000999045 0.000451705 0.0964308 255 255 255
0.00591548 -0.00153192 0.0949325 255 255 255
0.00592974 -0.00220283 0.0951051 255 255 255
0.0065256 0.000864325 0.0970864 255 255 255
-0.000698724 0.000107943 0.095947 255 255 255
0.00548548 -0.0014527 0.0953302 255 255 255
0.00675086 0.000822805 0.0969293 255 255 255
0.00250634 0.000679174 0.0961147 255 255 255
0.00590702 -0.00139463 0.0949192 255 255 255
0.00242174 0.00261582 0.094923 255 255 255
0.00198207 -0.000277446 0.0960426 255 255 255
0.00661122 -0.0016741 0.0949799 255 255 255
0.000515585 0.00346475 0.0954984 255 255 255
0.00687973 0.000881274 0.096856 255 255 255
0.00577231 -0.00134379 0.0950265 255 255 255
0.00691568 -0.00171063 0.0951885 255 255 255
0.0022748 -0.000387886 0.095956 255 255 255
0.00628845 -0.00139984 0.0949269 255 255 255
0.00077257 0.00440148 0.0955979 255 255 255
0.00169994 -0.000186863 0.0961991 255 255 255
-0.000794162 0.000263228 0.0960225 255 255 255
0.00700753 0.000909344 0.0967797 255 255 255
0.0023182 -0.00052177 0.0959527 255 255 255
0.00125731 0.00449026 0.0955325 255 255 255
0.0026467 0.000640568 0.0960802 255 255 255
0.00129503 0.000102509 0.0963031 255 255 255
0.00063615 0.00360395 0.0954214 255 255 255
0.00131929 0.00485779 0.0958002 255 255 255
0.00578325 -0.00146922 0.0949977 255 255 255
-0.000958253 2.14497e-05 0.0959014 255 255 255
0.0033432 0.00538612 0.0960768 255 255 255
0.00572805 -0.00124822 0.0950776 255 255 255
0.0023662 0.000731085 0.0960433 255 255 255
0.00116119 0.00473637 0.0956794 255 255 255
0.00258849 -0.000412984 0.0959974 255 255 255
0.00141699 -6.6051e-05 0.096258 255 255 255
0.00590392 -0.00125803 0.0949223 255 255 255
0.00693003 0.000523264 0.0967785 255 255 255
0.00243518 0.000289578 0.09603 255 255 255
0.000651474 -0.0033536 0.0937756 255 255 255
0.0018471 -0.000268398 0.0961367 255 255 255
0.00319621 0.00536309 0.0961967 255 255 255
0.0024454 -0.000415696 0.0959721 255 255 255
0.00025734 -0.00274805 0.0935095 255 255 255
0.00253207 2.00889e-06 0.0959536 255 255 255
0.00131587 0.0051629 0.0960101 255 255 255
0.00264888 -0.000258035 0.0959446 255 255 255
0.00164827 0.00438842 0.0954765 255 255 255
0.001376 0.00499177 0.0958876 255 255 255
0.00224458 -0.000254169 0.0960058 255 255 255
0.0071341 0.000668681 0.0966224 255 255 255
0.000520975 -0.00334372 0.0937975 255 255 255
0.00251086 -0.000284317 0.0959541 255 255 255
0.00155524 -9.71248e-05 0.0962346 255 255 255
0.00220751 0.00545293 0.096389 255 255 255
0.00238434 0.00042031 0.0960287 255 255 255
0.00114057 0.000433622 0.0963851 255 255 255
0.00695909 0.00074084 0.0966855 255 255 255
0.00143472 0.00442421 0.0955122 255 255 255
0.00722243 0.000791124 0.0965659 255 255 255
-0.000370086 0.000682079 0.0963802 255 255 255
0.00298309 0.00544353 0.0962902 255 255 255
0.00250085 -0.000146202 0.0959423 255 255 255
0.0015209 8.28746e-05 0.096249 255 255 255
-6.15744e-05 0.000818205 0.0964951 255 255 255
0.000918464 0.00386037 0.0953181 255 255 255
0.00237409 -0.000147673 0.095971 255 255 255
0.001934 -0.000111708 0.0960592 255 255 255
0.00151582 0.000220902 0.0962532 255 255 255
0.00165425 5.72298e-05 0.0961903 255 255 255
7.23789e-05 0.000825171 0.0964879 255 255 255
-0.000502003 0.000695101 0.0964334 255 255 255
7.34259e-05 -0.00251263 0.0935 255 255 255
-0.00131942 -0.000934026 0.0945359 255 255 255
0.00341283 0.0056975 0.0958507 255 255 255
0.00766154 0.00083827 0.0966443 255 255 255
0.00164207 0.000237229 0.0961786 255 255 255
0.00220405 -0.000118872 0.0960379 255 255 255
0.00118311 0.00518553 0.0960847 255 255 255
0.000550438 -0.00350474 0.0938403 255 255 255
0.00177779 0.000205795 0.0961188 255 255 255
0.00786037 0.000501262 0.0966551 255 255 255
0.0023972 -8.24382e-06 0.0959728 255 255 255
0.00187529 0.000364512 0.0961445 255 255 255
0.00188593 1.80106e-05 0.0960832 255 255 255
0.00202266 0.000337007 0.0961024 255 255 255
-0.00108796 -2.39631e-05 0.0958699 255 255 255
0.00173978 0.000373592 0.0961714 255 255 255
0.00602258 -0.000636406 0.095096 255 255 255
0.00599878 -0.000774209 0.0950335 255 255 255
0.00194529 0.000498686 0.0961637 255 255 255
0.00611672 -0.000741198 0.0949503 255 255 255
0.0013141 0.000441024 0.0963101 255 255 255
0.00119978 0.000907128 0.0964193 255 255 255
0.00219029 9.46932e-06 0.0960452 255 255 255
0.00649578 -0.000445636 0.0949983 255 255 255
0.00617189 -0.000477261 0.0949901 255 255 255
0.00647763 -0.000627767 0.0949616 255 255 255
0.00604468 -0.000503725 0.0951047 255 255 255
0.00614788 -0.000613839 0.0949989 255 255 255
0.00620451 -0.000237086 0.0951199 255 255 255
0.00154286 0.00358093 0.0951271 255 255 255
0.000645303 0.00346943 0.0954182 255 255 255
0.000178222 -0.00261949 0.0935047 255 255 255
0.00146218 0.00336049 0.095119 255 255 255
0.0014837 0.0031685 0.0950651 255 255 255
-5.71709e-05 -0.00258908 0.093543 255 255 255
0.000893596 0.0037257 0.0952898 255 255 255
0.00163893 0.00377142 0.0952181 255 255 255
-6.74579e-05 -0.00244952 0.0935463 255 255 255
0.0066144 -0.000266116 0.0950518 255 255 255
0.00062039 0.00333196 0.0954348 255 255 255
-0.0010922 -0.00122338 0.0943021 255 255 255
0.000929841 0.00339344 0.0952937 255 255 255
0.00663014 -0.000450999 0.0949557 255 255 255
0.00049151 0.00332855 0.0955245 255 255 255
-0.00123098 -0.00118605 0.0942697 255 255 255
0.000774706 0.00351614 0.0953345 255 255 255
0.00675818 -0.000448356 0.094904 255 255 255
0.00114702 0.00383863 0.095239 255 255 255
0.00158372 0.00345656 0.0950756 255 255 255
0.0011795 0.0036458 0.0951866 255 255 255
0.000371944 0.00092403 0.0966155 255 255 255
-0.000937923 0.000273643 0.0961037 255 255 255
-0.00148918 -0.000359093 0.095572 255 255 255
0.00133665 0.00322482 0.0951363 255 255 255
0.000788403 0.00337749 0.0953288 255 255 255
0.00133028 0.00368663 0.0951628 255 255 255
0.00144946 0.00381547 0.0951786 255 255 255
-0.000312518 -0.00223014 0.0935555 255 255 255
0.00115473 0.00103591 0.0964734 255 255 255
0.000956623 0.00299717 0.0953522 255 255 255
0.00139395 0.00281454 0.0950865 255 255 255
0.000830325 0.00286341 0.0954795 255 255 255
0.000810844 0.00511371 0.096169 255 255 255
-0.000409105 -0.00211223 0.093575 255 255 255
0.00124181 0.00302475 0.0951664 255 255 255
0.00180731 0.00259276 0.0948561 255 255 255
0.00106356 0.00334384 0.0952104 255 255 255
0.00260142 0.0057077 0.0958672 255 255 255
0.00268724 0.00584784 0.0957641 255 255 255
0.00118945 0.00334928 0.0951325 255 255 255
0.000948938 0.00326248 0.0953138 255 255 255
0.000779902 0.00324985 0.0953942 255 255 255
0.000404833 0.00315207 0.095561 255 255 255
0.00197934 0.00254897 0.0948424 255 255 255
0.000277212 0.00314881 0.095638 255 255 255
-0.00121685 -0.00132501 0.0942642 255 255 255
0.00122695 0.00288841 0.0952105 255 255 255
0.000961593 0.00313265 0.0953304 255 255 255
0.000454611 0.00302198 0.0955647 255 255 255
0.00180444 0.00234831 0.0949333 255 255 255
-0.000197464 0.00102305 0.0967785 255 255 255
0.00159368 0.00243096 0.0949486 255 255 255
-0.000190371 0.000854386 0.0966454 255 255 255
0.00146994 0.00268617 0.0950394 255 255 255
-6.80737e-05 0.00106443 0.0967406 255 255 255
0.00154188 0.00255639 0.0949783 255 255 255
0.00109556 0.00295513 0.0952965 255 255 255
0.00230543 0.00562321 0.0960673 255 255 255
5.06112e-05 0.00108623 0.0967369 255 255 255
0.00147106 0.00229614 0.0950235 255 255 255
0.00211174 0.00267485 0.0948623 255 255 255
-8.2969e-05 -0.0032719 0.0939815 255 255 255
0.00160023 0.00317184 0.0949959 255 255 255
0.00102908 0.00279607 0.0953865 255 255 255
0.00121937 0.00234981 0.0952707 255 255 255
0.000580229 -0.00381846 0.0940803 255 255 255
0.000702665 -0.00393033 0.0941315 255 255 255
0.00149178 0.00199191 0.0952378 255 255 255
-2.41501e-05 -0.00305182 0.0937577 255 255 255
0.00121132 0.00215318 0.0953876 255 255 255
0.000770742 0.00235421 0.0956156 255 255 255
-0.000405788 -0.00196164 0.0936265 255 255 255
0.00216684 0.00561927 0.0962693 255 255 255
0.000210797 -0.00312638 0.0937161 255 255 255
0.00161224 0.00200472 0.0951309 255 255 255
0.000499687 0.00104333 0.0966404 255 255 255
-0.000337933 -0.00150629 0.0936877 255 255 255
-0.000501472 -0.00148093 0.0938503 255 255 255
-0.000167281 -0.00314475 0.0940267 255 255 255
0.000372461 0.00104574 0.0966564 255 255 255
-0.000450345 -0.00170561 0.093707 255 255 255
0.00091319 0.00233638 0.0954935 255 255 255
0.000896919 0.00203865 0.0956564 255 255 255
0.000393021 0.00114181 0.096722 255 255 255
0.000940198 0.00251145 0.0954648 255 255 255
0.00105995 0.00227627 0.0954188 255 255 255
0.00231055 0.00574085 0.0960035 255 255 255
0.000923796 0.00220967 0.0955181 255 255 255
0.00131125 0.00197322 0.0954159 255 255 255
0.000727889 0.00248887 0.0955576 255 255 255
0.00052292 -0.00367926 0.0940292 255 255 255
0.00133709 0.00234471 0.0951539 255 255 255
0.000769567 0.00211431 0.0957236 255 255 255
0.000190739 0.00233847 0.0961586 255 255 255
0.000448265 0.0024287 0.0957684 255 255 255
-0.000531766 -0.00170168 0.0938134 255 255 255
-0.000671635 0.0032264 0.0957356 255 255 255
-0.000476586 -0.00150486 0.0937201 255 255 255
0.00130514 0.00187938 0.0955944 255 255 255
-0.000588339 -0.00257431 0.0938363 255 255 255
-0.00061772 -0.00234972 0.0938159 255 255 255
-0.000654964 -0.00238701 0.0939515 255 255 255
-0.000475458 0.00384495 0.0953557 255 255 255
-0.00175416 -0.00101799 0.0947257 255 255 255
-0.000422784 0.00404092 0.0953854 255 255 255
0.000193644 0.00493679 0.0965824 255 255 255
-0.000227814 0.00235909 0.0967242 255 255 255
0.000710536 0.00175089 0.0963804 255 255 255
-0.000672 -0.00224083 0.0939515 255 255 255
-0.000567879 0.00304772 0.096502 255 255 255
-0.000559786 0.00390715 0.0964833 255 255 255
7.06467e-05 0.00475362 0.0964397 255 255 255
0.000937263 0.00171694 0.0984393 255 255 255
-0.000391482 -0.00308984 0.094627 255 255 255
-0.00204608 -0.00133321 0.095604 255 255 255
-0.000702511 -0.00168661 0.0943042 255 255 255
-0.000394645 -0.00185923 0.0936869 255 255 255
-0.000157301 0.00293811 0.0960231 255 255 255
-0.00018828 -0.00304552 0.0939533 255 255 255
-0.000759632 -0.00201783 0.0941838 255 255 255
0.00134198 0.00260826 0.0951366 255 255 255
-0.00191223 -0.00175678 0.095589 255 255 255
-0.00038102 -0.00314771 0.0944395 255 255 255
-0.000735788 -0.00226953 0.0940902 255 255 255
0.000640082 0.00531705 0.0966234 255 255 255
0.000723119 0.00545429 0.0965891 255 255 255
0.000707862 0.00530465 0.0965424 255 255 255
-0.000444937 0.00268972 0.0966495 255 255 255
-0.00013942 0.00465033 0.0959419 255 255 255
0.000506995 0.00150416 0.0978557 255 255 255
-0.000268425 -0.00309574 0.0951601 255 255 255
-0.000865241 0.000527756 0.0966578 255 255 255
0.000130886 0.0047522 0.0963411 255 255 255
0.000666009 0.00162411 0.0978131 255 255 255
-0.000121288 0.00457948 0.0967849 255 255 255
-0.000178589 0.00451596 0.096016 255 255 255
-0.000380785 -0.00299 0.0950258 255 255 255
0.000442338 -0.00217566 0.0980512 255 255 255
-0.000331179 0.00347387 0.0975215 255 255 255
8.89553e-05 0.00475038 0.0960918 255 255 255
-0.000285141 0.0038449 0.0973765 255 255 255
0.000804562 -0.000924743 0.0987969 255 255 255
7.67565e-05 0.00479218 0.0966052 255 255 255
-0.00169664 -0.000433755 0.0961843 255 255 255
-0.000356632 0.00421621 0.0963657 255 255 255
-0.000333539 0.00357689 0.0975109 255 255 255
-0.000281576 0.00405837 0.0972352 255 255 255
-8.85822e-05 0.00457709 0.0962349 255 255 255
-9.66319e-05 0.00442815 0.0963179 255 255 255
-0.000112058 0.0045861 0.0966511 255 255 255
-0.000627695 0.00380651 0.0960393 255 255 255
-0.000625784 0.00332594 0.0958886 255 255 255
0.000606206 -0.00116077 0.0984765 255 255 255
-0.000158684 -0.00345736 0.0943331 255 255 255
-0.000570667 -0.00287179 0.0940985 255 255 255
-0.000471528 0.0040561 0.0965358 255 255 255
-0.00022119 0.00436756 0.0960599 255 255 255
0.000164776 -0.0020804 0.0969416 255 255 255
0.000769418 -0.00175722 0.0988775 255 255 255
6.87885e-05 -0.00227541 0.096818 255 255 255
7.18213e-06 -0.00333732 0.0957051 255 255 255
0.000718477 -0.00197254 0.0986953 255 255 255
-0.000714356 0.000739552 0.0970034 255 255 255
0.00108259 0.00306419 0.0952691 255 255 255
0.00102855 0.0031951 0.0952271 255 255 255
0.00172567 0.00264451 0.0949732 255 255 255
0.000846236 0.00531488 0.0964507 255 255 255
0.00171066 0.00175793 0.0953931 255 255 255
0.00166398 0.0017557 0.0955 255 255 255
-0.000644835 -0.00183806 0.0940449 255 255 255
0.000596331 0.00539924 0.0967556 255 255 255
-0.000798143 0.000375102 0.0963215 255 255 255
0.00228496 0.00147854 0.0961681 255 255 255
-0.00058918 0.000864671 0.0971352 255 255 255
0.00029148 -0.00377786 0.0942444 255 255 255
0.000201646 0.0014234 0.0970933 255 255 255
-0.000795926 -0.00214129 0.0942673 255 255 255
-0.000610097 0.000838027 0.0974111 255 255 255
-0.00033091 -0.0018795 0.0935963 255 255 255
-0.000363914 -0.00172196 0.0936112 255 255 255
0.00083664 0.00264813 0.0954858 255 255 255
-0.00070766 0.00064042 0.0973225 255 255 255
0.000209985 0.00144722 0.0969567 255 255 255
0.000294167 0.00103184 0.0981779 255 255 255
-0.00174164 -0.00119083 0.0945923 255 255 255
-0.000483304 -0.0013291 0.0939409 255 255 255
-0.000585107 -0.00276134 0.0940615 255 255 255
-0.000436133 -0.00280143 0.0937966 255 255 255
-0.000285453 -0.00320527 0.0943296 255 255 255
-0.000371504 0.00420647 0.0955309 255 255 255
-5.99938e-05 0.00457835 0.0964278 255 255 255
-0.00188262 -0.00192709 0.0954518 255 255 255
0.000296358 0.00217433 0.0961976 255 255 255
0.000394954 -0.00335123 0.0970774 255 255 255
-0.000397931 0.00269535 0.096542 255 255 255
-0.00040923 -0.00300217 0.094047 255 255 255
0.000554363 -0.00340272 0.0973018 255 255 255
-0.000177151 -0.00345471 0.0946418 255 255 255
-0.00159237 -0.00102578 0.0945464 255 255 255
1.51986e-05 -0.0037466 0.0944508 255 255 255
-0.000218957 0.0024966 0.0964208 255 255 255
0.00161266 0.00244386 0.0989632 255 255 255
-0.000113371 -0.00356019 0.0945269 255 255 255
0.00109265 -0.00237115 0.0991051 255 255 255
-0.00206497 -0.00132125 0.095065 255 255 255
-0.000525468 0.00389597 0.0966508 255 255 255
0.000313057 0.00493898 0.096315 255 255 255
-0.000238861 0.00449934 0.0958556 255 255 255
-0.000195526 0.00463722 0.0958099 255 255 255
0.00160517 0.00210834 0.0988424 255 255 255
4.76824e-05 0.00476681 0.0967519 255 255 255
-0.00205523 -0.00145029 0.0950622 255 255 255
-0.000175098 0.00433395 0.0964479 255 255 255
0.000503598 0.00156555 0.0976071 255 255 255
-0.00173235 -0.000969598 0.0963963 255 255 255
-0.00173595 -0.000831418 0.096385 255 255 255
-0.000663181 0.0033763 0.0960622 255 255 255
-0.00206102 -0.00136959 0.0951867 255 255 255
-0.000482377 0.00387447 0.0955044 255 255 255
-0.000472689 0.0042024 0.0959368 255 255 255
-0.000546435 0.00371844 0.0959217 255 255 255
-0.000396093 0.00422228 0.0956643 255 255 255
-0.000629185 0.00342953 0.0963096 255 255 255
0.000886261 0.00165725 0.0985784 255 255 255
-0.00170263 -0.000528754 0.0959598 255 255 255
-0.000735051 -0.00243002 0.0942303 255 255 255
-0.000631601 -0.00273454 0.094189 255 255 255
0.000588446 -0.00106182 0.0982426 255 255 255
-6.23714e-05 -0.00303785 0.0956659 255 255 255
0.000889325 0.00174246 0.0982652 255 255 255
0.000527293 -0.00133804 0.0979413 255 255 255
0.00059578 -0.00120553 0.0980731 255 255 255
0.000887197 -0.000895911 0.0989842 255 255 255
-0.000106681 -0.00306311 0.0954941 255 255 255
0.000752592 -0.00163043 0.0988859 255 255 255
-0.000199948 0.00114809 0.0973884 255 255 255
8.5451e-05 -0.00226832 0.0966701 255 255 255
0.000136914 -0.00248462 0.0970901 255 255 255
0.000135565 -0.00225 0.0970163 255 255 255
0.000581794 -0.00133966 0.0981024 255 255 255
-0.000193403 0.000823231 0.0977856 255 255 255
-0.000107014 -0.00292341 0.0954779 255 255 255
-3.13026e-05 -0.00263282 0.0964653 255 255 255
0.000461687 -0.00168223 0.0980038 255 255 255
-5.28999e-05 -0.00264615 0.0962928 255 255 255
0.000133135 -0.00225019 0.0972224 255 255 255
0.000664956 -0.000718279 0.098235 255 255 255
0.000569628 -0.000168986 0.0984976 255 255 255
0.000370387 -0.00334148 0.0969077 255 255 255
0.000345654 -0.00217617 0.0978083 255 255 255
-0.000393325 0.00343898 0.0973401 255 255 255
0.000616725 -0.00184384 0.0985494 255 255 255
0.000747149 -0.000133768 0.0987748 255 255 255
0.000434703 -0.00232965 0.097982 255 255 255
-0.000361783 0.00368553 0.0973392 255 255 255
0.000621456 -0.0021463 0.0984148 255 255 255
-0.00158448 -0.00040011 0.0965452 255 255 255
-0.000229616 0.00394763 0.0975105 255 255 255
-0.000246058 0.00377282 0.0975664 255 255 255
-0.00102704 0.000168661 0.0972211 255 255 255
-0.00175145 -0.00115966 0.0963651 255 255 255
0.000568372 0.000337073 0.0985908 255 255 255
-0.00145913 -0.000469416 0.0968666 255 255 255
0.000509696 0.00132006 0.0982167 255 255 255
0.000219989 0.00468532 0.0976216 255 255 255
-0.00145872 -0.000327544 0.096826 255 255 255
-0.00152164 -0.000796593 0.0967599 255 255 255
0.000631562 -0.00226149 0.0983649 255 255 255
0.000275263 0.00133559 0.0977763 255 255 255
-7.87306e-07 0.00419236 0.0977099 255 255 255
0.000385848 0.00118029 0.0981958 255 255 255
-0.000151068 0.00348128 0.0977561 255 255 255
-0.00149552 -0.000627776 0.0968085 255 255 255
-0.000936171 0.000313027 0.0972789 255 255 255
0.000649241 -0.00239865 0.0983621 255 255 255
0.000233735 0.00120601 0.0980023 255 255 255
-0.000123341 0.00304202 0.0977682 255 255 255
0.000565041 -0.00184675 0.0984 255 255 255
0.00055347 -0.00281543 0.0979179 255 255 255
0.000980196 -0.000339626 0.0989578 255 255 255
0.000932726 -0.00218977 0.099057 255 255 255
-0.000462278 0.00325423 0.0971408 255 255 255
-0.000108021 0.00261437 0.0975912 255 255 255
0.00101368 -0.000452445 0.0990143 255 255 255
0.000595801 -5.16131e-05 0.0985695 255 255 255
-0.000386456 0.00354951 0.0973386 255 255 255
-0.00184816 -0.00121167 0.0962111 255 255 255
0.000830179 -0.00283858 0.0982295 255 255 255
-0.000177896 0.00358128 0.097716 255 255 255
-0.00148558 -0.000950703 0.0967442 255 255 255
-0.00165087 -0.000484675 0.0964077 255 255 255
-9.18113e-06 0.00403062 0.0977316 255 255 255
5.69264e-05 0.00425664 0.0977407 255 255 255
-0.00149405 -0.000287277 0.0966597 255 255 255
0.000463472 0.000305218 0.0984342 255 255 255
0.00116595 -0.00167324 0.0993338 255 255 255
0.000654034 -0.000335981 0.0985348 255 255 255
0.000119842 0.00244467 0.0977611 255 255 255
-0.000894165 -6.27972e-05 0.0974764 255 255 255
-0.00137294 -0.000163914 0.0967899 255 255 255
0.0012441 -0.00226939 0.0993458 255 255 255
-1.66174e-05 0.00452752 0.0973963 255 255 255
0.000634203 0.00138597 0.0984549 255 255 255
0.000846524 -0.00211024 0.0988599 255 255 255
7.93627e-05 0.003649 0.0980069 255 255 255
-0.001651 -0.00134269 0.0964731 255 255 255
0.000568276 0.00481469 0.0979438 255 255 255
-0.00161341 -0.00117992 0.0965721 255 255 255
0.000712629 -0.00266535 0.0981887 255 255 255
0.000262884 0.00141123 0.0974956 255 255 255
0.000115776 0.00221174 0.0975167 255 255 255
0.00138163 0.00248821 0.0986687 255 255 255
0.000713249 -0.0017972 0.0987253 255 255 255
0.000659877 -0.00199947 0.0985527 255 255 255
0.000602232 0.00144332 0.0981985 255 255 255
-0.000308541 0.00395979 0.0973988 255 255 255
-0.000652323 -0.00241406 0.0944074 255 255 255
0.000532965 0.00114303 0.0984277 255 255 255
-0.00152259 -0.000492514 0.0967225 255 255 255
-0.00159607 -0.000683793 0.0966236 255 255 255
3.92794e-05 0.00243142 0.0976127 255 255 255
-0.000758307 0.000283537 0.0974735 255 255 255
0.00129565 -0.00241762 0.0993598 255 255 255
-0.00182291 -0.000788499 0.0961935 255 255 255
-0.00178711 -0.00162769 0.0960346 255 255 255
0.000747958 -0.00227859 0.0985325 255 255 255
-7.30113e-05 0.0041993 0.0975805 255 255 255
0.000775533 0.0001816 0.0988414 255 255 255
-1.5168e-05 0.000762017 0.0979647 255 255 255
-0.000152124 0.00368622 0.0977426 255 255 255
-0.00192303 -0.00163439 0.0957735 255 255 255
0.000582062 0.00491955 0.0978087 255 255 255
-0.00159439 -0.000310587 0.0965219 255 255 255
0.000452587 0.000416419 0.0984604 255 255 255
-2.43187e-05 0.00271259 0.09772 255 255 255
-0.000121293 0.00315784 0.0978054 255 255 255
0.000503756 0.00432785 0.0982251 255 255 255
0.000545782 0.00320682 0.098364 255 255 255
-0.00016978 0.000369506 0.0979793 255 255 255
0.000662685 -0.00294466 0.0980055 255 255 255
-0.000490855 0.00303018 0.0968189 255 255 255
0.00149583 -0.00271358 0.0994237 255 255 255
-0.00054194 0.00386045 0.0967992 255 255 255
-0.000200887 0.0031268 0.0976705 255 255 255
0.00069277 0.000430254 0.0987668 255 255 255
0.000989979 -0.000236215 0.0989715 255 255 255
0.000681776 -0.000200032 0.0986347 255 255 255
0.000904613 -0.00048969 0.0989089 255 255 255
0.000882523 -0.00227548 0.0989622 255 255 255
0.000527431 0.00224175 0.0979292 255 255 255
0.000850739 0.00259461 0.0983761 255 255 255
0.00110921 0.00160919 0.0987831 255 255 255
-0.00168303 -0.00159025 0.0961712 255 255 255
0.000537925 -0.0021864 0.0982547 255 255 255
-0.000531488 0.00350534 0.0969707 255 255 255
-0.00040051 0.00353633 0.0972301 255 255 255
0.000704054 -0.00281885 0.0981144 255 255 255
0.000447343 0.00137352 0.0978922 255 255 255
0.00110161 -0.00324967 0.0980378 255 255 255
-0.000906224 0.000158088 0.0973739 255 255 255
-0.000669802 0.000385957 0.0975198 255 255 255
-0.00175114 -0.0013371 0.0963265 255 255 255
-0.00158806 -0.00101434 0.0966373 255 255 255
0.000465221 0.00103745 0.0983071 255 255 255
0.000793513 0.00237473 0.0981847 255 255 255
0.00157438 -0.00286906 0.0993721 255 255 255
0.000405328 0.00382224 0.0982553 255 255 255
0.000725856 -0.00215181 0.0985505 255 255 255
0.000418566 0.00303362 0.0982491 255 255 255
0.000537729 0.0034853 0.0983716 255 255 255
0.00234777 0.000252873 0.099644 255 255 255
0.000572804 -0.00173653 0.0985049 255 255 255
0.00106189 -0.00329527 0.0979285 255 255 255
0.000631707 0.00152737 0.0979751 255 255 255
-0.000273191 0.00293944 0.0975214 255 255 255
-1.10088e-05 0.00362995 0.0978628 255 255 255
0.0014932 -0.00243524 0.0994938 255 255 255
0.000333814 0.00397406 0.0981876 255 255 255
0.00029989 0.00384708 0.0981735 255 255 255
0.000206371 0.00395317 0.0980864 255 255 255
-0.00167623 -0.0014934 0.0962946 255 255 255
0.00108083 -0.00245625 0.0989767 255 255 255
0.000970394 -0.000659828 0.0990172 255 255 255
0.000468254 0.00233485 0.0979201 255 255 255
0.00177917 -0.00184778 0.0996545 255 255 255
0.00142195 -0.000629391 0.0993911 255 255 255
-0.000340361 0.00366443 0.0974844 255 255 255
0.000435469 0.00218832 0.0978617 255 255 255
-0.000675733 0.000205167 0.0976104 255 255 255
0.00192657 -0.000390678 0.0995414 255 255 255
0.00137046 -0.0022672 0.0994801 255 255 255
0.00209564 -0.0001723 0.0996198 255 255 255
0.00148059 -0.00286367 0.0992939 255 255 255
-0.000145651 0.00296414 0.0976326 255 255 255
0.000114581 0.000566217 0.098099 255 255 255
0.00123781 0.00297371 0.0986263 255 255 255
0.000453692 0.00417013 0.0982019 255 255 255
0.000672568 0.00460351 0.0981456 255 255 255
0.0014095 0.00149489 0.0990165 255 255 255
0.00143535 0.000974011 0.0991941 255 255 255
0.00199475 -0.00196333 0.099771 255 255 255
0.000414684 -0.00180955 0.09809 255 255 255
0.00087509 -0.000663915 0.0989462 255 255 255
0.00136699 0.00258028 0.098673 255 255 255
0.00134895 0.0027085 0.0986754 255 255 255
0.00121751 -0.00214018 0.0993498 255 255 255
0.0014731 0.00258406 0.0987871 255 255 255
-1.59784e-05 0.00373199 0.0978286 255 255 255
0.00222872 -0.00183642 0.099861 255 255 255
0.00019436 0.00382455 0.0981152 255 255 255
-0.000152435 0.00411749 0.0975101 255 255 255
5.30325e-05 0.00255597 0.0976819 255 255 255
0.00205937 -4.82077e-05 0.0995651 255 255 255
0.000183448 0.00131094 0.0977125 255 255 255
-0.000113155 0.00282105 0.0976031 255 255 255
0.000490491 0.00114675 0.0983285 255 255 255
7.26498e-05 0.00128073 0.0975759 255 255 255
0.00132964 -0.00212154 0.099451 255 255 255
0.000934318 0.00089903 0.0989589 255 255 255
0.00101252 0.000773386 0.0990152 255 255 255
0.00106754 0.00245429 0.0984323 255 255 255
0.00227047 -0.00130538 0.0998322 255 255 255
0.00106706 0.00275864 0.0985944 255 255 255
0.00111314 0.000986191 0.0990287 255 255 255
0.00150774 -0.00189067 0.0995481 255 255 255
0.00208905 -0.00143396 0.0997911 255 255 255
-0.000148418 7.31346e-05 0.0979355 255 255 255
0.000420821 0.00340914 0.0983126 255 255 255
-0.000325198 4.66434e-05 0.097893 255 255 255
0.000933907 0.00133178 0.0987493 255 255 255
0.0022821 -0.00143091 0.0998481 255 255 255
0.00174701 -0.00171042 0.099653 255 255 255
-0.000360289 -0.000334755 0.0977509 255 255 255
0.00186481 -0.000515424 0.0995398 255 255 255
0.00118305 0.000669766 0.0991655 255 255 255
0.00240013 -0.000101015 0.0997625 255 255 255
0.00525493 0.000926483 0.0993254 255 255 255
0.00179807 -0.00105052 0.0995856 255 255 255
0.00195556 -0.00183613 0.0997451 255 255 255
0.000661064 0.0047657 0.0980781 255 255 255
0.00498004 0.000753765 0.0992502 255 255 255
0.00195107 -0.00265729 0.0996277 255 255 255
0.00225574 -0.00071588 0.0997764 255 255 255
0.00145171 0.000776489 0.0992451 255 255 255
0.00232196 9.25615e-05 0.09968 255 255 255
0.00115764 0.00468947 0.0983632 255 255 255
0.00227143 -0.00278358 0.0996247 255 255 255
0.00107816 0.00417442 0.0985517 255 255 255
0.00480097 0.000798593 0.0992113 255 255 255
0.0013547 0.00132064 0.0990408 255 255 255
0.00161509 0.00277729 0.0988672 255 255 255
0.00221366 0.000220476 0.099577 255 255 255
0.0011871 0.00510117 0.0981355 255 255 255
-9.8049e-05 0.00130357 0.0972866 255 255 255
0.00213937 9.13435e-05 0.0995812 255 255 255
0.00128498 0.00089709 0.0991403 255 255 255
-0.000815624 0.000377934 0.0974009 255 255 255
-0.000251156 0.00359043 0.0976333 255 255 255
0.00047248 0.0048842 0.0977642 255 255 255
0.000322991 0.00407512 0.0981491 255 255 255
-0.00140558 -0.000383961 0.0969752 255 255 255
0.000330308 0.00149879 0.0975997 255 255 255
0.00133418 -0.00256504 0.0993672 255 255 255
-0.000711513 0.000643971 0.0974347 255 255 255
0.00165062 0.00247849 0.098936 255 255 255
-0.00140082 -0.000867636 0.0968912 255 255 255
0.0011028 0.00258577 0.0985698 255 255 255
0.00226244 -5.39873e-05 0.0996865 255 255 255
0.00111891 0.00118955 0.099016 255 255 255
0.00133868 -0.00153226 0.0994603 255 255 255
0.001757 -0.00260884 0.0995767 255 255 255
0.00164106 0.000618576 0.0992641 255 255 255
0.00106679 0.00286669 0.0985926 255 255 255
0.00155284 -0.0016653 0.0995534 255 255 255
0.00166921 -0.00116051 0.0995482 255 255 255
0.00503903 0.000877789 0.0992624 255 255 255
0.00455799 0.00117799 0.0992529 255 255 255
0.00468035 0.00133093 0.0992718 255 255 255
0.00565089 0.00091406 0.0992998 255 255 255
0.00490991 0.00102786 0.0992649 255 255 255
0.00439133 0.00130255 0.0992582 255 255 255
0.0059431 0.000737633 0.0992094 255 255 255
0.00131095 0.00100082 0.0991163 255 255 255
0.000974023 0.00483238 0.0982354 255 255 255
0.00521341 0.00101696 0.0993135 255 255 255
0.00490589 0.00117948 0.0992496 255 255 255
0.0011216 0.00477471 0.0983028 255 255 255
0.00511237 0.00114484 0.0992863 255 255 255
0.00497574 0.00132355 0.099274 255 255 255
0.00123999 0.00454416 0.0984239 255 255 255
0.00115003 0.00432444 0.0985027 255 255 255
0.00433562 0.00143928 0.0992454 255 255 255
0.00129998 0.00479257 0.0983275 255 255 255
0.0027123 -0.00082712 0.099967 255 255 255
0.00292609 -0.000923116 0.0999959 255 255 255
0.00144749 0.00112519 0.0991121 255 255 255
0.00329329 -0.002309 0.0999539 255 255 255
0.00270868 0.000374572 0.099706 255 255 255
0.00388543 0.00152124 0.0991312 255 255 255
0.00292328 0.000552767 0.0996376 255 255 255
0.0035617 0.00152175 0.099131 255 255 255
0.00292491 -7.96291e-05 0.0997998 255 255 255
0.00329051 4.09688e-05 0.0996941 255 255 255
0.00260823 0.0029609 0.0985065 255 255 255
0.0011204 0.00373897 0.0986599 255 255 255
0.00374004 0.00155274 0.0991074 255 255 255
0.00216877 0.00303202 0.0987071 255 255 255
0.00392054 0.00164366 0.0991199 255 255 255
0.00320075 -0.00103732 0.100031 255 255 255
0.00210418 0.00349458 0.0987322 255 255 255
0.0029529 0.000755716 0.0996134 255 255 255
0.00409818 0.00153629 0.099165 255 255 255
0.00348543 -0.00102968 0.0999669 255 255 255
0.00309737 -0.000671303 0.0999493 255 255 255
0.00671423 0.000553548 0.0990452 255 255 255
0.00214206 0.00211555 0.0989745 255 255 255
0.00228781 0.00434737 0.0984298 255 255 255
0.00351186 -0.000822823 0.099916 255 255 255
0.00730958 0.000627023 0.0988041 255 255 255
0.00194188 0.00211136 0.0989837 255 255 255
0.00250573 0.00397862 0.0984635 255 255 255
0.00198399 0.00422796 0.0985011 255 255 255
0.00277348 0.00405452 0.0983894 255 255 255
0.00268615 0.00416505 0.0983686 255 255 255
0.00292596 0.00384233 0.0983588 255 255 255
0.00189982 0.00273965 0.0988435 255 255 255
0.00388382 0.000309819 0.0992006 255 255 255
0.00296104 0.00214402 0.0988443 255 255 255
0.00382346 -0.00209499 0.099984 255 255 255
0.00326967 0.000413297 0.0996059 255 255 255
0.00440625 0.00212697 0.0988039 255 255 255
0.00250432 0.00367445 0.0986041 255 255 255
0.00240506 0.00175891 0.0992243 255 255 255
0.00314715 5.69498e-05 0.0997448 255 255 255
0.00197124 0.0043414 0.0984827 255 255 255
0.00248074 0.00497106 0.0979221 255 255 255
0.00353429 0.000799271 0.0993891 255 255 255
0.00240261 0.00379806 0.098587 255 255 255
0.00231272 0.0036544 0.0986401 255 255 255
0.00366646 -0.000142181 0.0996524 255 255 255
0.00775015 0.000408971 0.098503 255 255 255
0.00357427 6.84953e-05 0.0995575 255 255 255
0.0029567 0.00343892 0.0984002 255 255 255
0.0025392 0.00507106 0.0977734 255 255 255
0.00368649 -0.00103636 0.0999075 255 255 255
0.00263363 0.00206324 0.0990218 255 255 255
0.00195051 0.0048877 0.0981625 255 255 255
0.00342913 0.00134323 0.0993139 255 255 255
0.0026497 0.00217008 0.0989312 255 255 255
0.00181428 0.00434464 0.098542 255 255 255
0.00329028 0.00119772 0.0994228 255 255 255
0.00261405 0.0019267 0.0991101 255 255 255
0.00197711 0.004444 0.0984723 255 255 255
0.00184155 0.00317808 0.0987953 255 255 255
0.00343683 0.00117796 0.0993575 255 255 255
0.00321363 0.000840407 0.099534 255 255 255
0.00332418 -0.000807634 0.0999274 255 255 255
0.00274264 0.00367388 0.0985232 255 255 255
0.0038283 0.00222906 0.098693 255 255 255
0.0023065 0.00302278 0.0986283 255 255 255
0.00647838 -0.000820675 0.0967126 255 255 255
0.00367121 -0.000783951 0.0998802 255 255 255
0.00304787 0.00175356 0.0991856 255 255 255
0.00420989 -9.51536e-07 0.0991149 255 255 255
0.00290405 0.00162039 0.0992575 255 255 255
0.00286835 -0.000408099 0.0999327 255 255 255
0.00305553 -0.000185216 0.0998008 255 255 255
0.00222985 0.00377391 0.0985999 255 255 255
0.00251995 0.0048629 0.0980229 255 255 255
0.00332241 0.00131316 0.0993738 255 255 255
0.00492101 -0.00224497 0.0990758 255 255 255
0.00292568 0.00201273 0.0989461 255 255 255
0.00335105 -0.000452046 0.0998786 255 255 255
0.00341435 0.000808798 0.0994416 255 255 255
0.00322587 0.000708725 0.0995358 255 255 255
0.00216303 0.00467155 0.098269 255 255 255
0.00336407 0.00105418 0.0994508 255 255 255
0.00351025 0.000352781 0.0994669 255 255 255
0.00290965 0.00175275 0.099207 255 255 255
0.00310791 0.000684041 0.0996165 255 255 255
0.00348621 -0.000445965 0.099811 255 255 255
0.00279395 0.0039172 0.0984433 255 255 255
0.00379867 -0.000777523 0.0997981 255 255 255
0.00242108 0.00509917 0.0978592 255 255 255
0.00490988 -0.00150162 0.0992187 255 255 255
0.00384048 -0.000921688 0.0997782 255 255 255
0.00371894 5.91447e-05 0.0994981 255 255 255
0.00231597 0.0028827 0.0986135 255 255 255
0.00318151 0.00403948 0.0981723 255 255 255
0.00759652 0.000461036 0.0986304 255 255 255
0.00359737 -0.000305949 0.0997159 255 255 255
0.00296879 0.00353873 0.0983723 255 255 255
0.00314203 0.00221078 0.0985839 255 255 255
0.00387014 -0.00193238 0.100031 255 255 255
0.00311211 0.00342133 0.0983412 255 255 255
0.00304462 0.00409587 0.0982363 255 255 255
0.00399526 -0.00173936 0.0997537 255 255 255
0.00450274 -0.0019076 0.0993972 255 255 255
0.00307972 0.00122246 0.0994381 255 255 255
0.00772635 0.000240549 0.098476 255 255 255
0.00476895 -0.00231986 0.0990817 255 255 255
0.00222733 0.00543696 0.0966171 255 255 255
0.00338652 0.000411033 0.0995157 255 255 255
0.00227417 0.00492168 0.0980798 255 255 255
0.00365527 0.000165487 0.0994762 255 255 255
0.00349535 3.48451e-06 0.0996307 255 255 255
0.0075421 0.000574936 0.0986335 255 255 255
0.00287066 0.00335368 0.0984554 255 255 255
0.00456343 -0.00239269 0.0991561 255 255 255
0.00180371 0.00446012 0.0985368 255 255 255
0.00431692 -0.00177882 0.0995612 255 255 255
0.00403538 -0.000569056 0.0996944 255 255 255
0.00709359 0.000281659 0.0988236 255 255 255
0.00264615 0.0049452 0.0978998 255 255 255
0.00243415 0.00303383 0.0985619 255 255 255
0.00324286 0.00566476 0.0960435 255 255 255
0.00219708 0.00424217 0.0984921 255 255 255
0.00244598 0.00287256 0.0985544 255 255 255
0.00277594 0.00582319 0.0958658 255 255 255
