ply
format ascii 1.0
element vertex 1185
property float x
property float y
property float z
property uchar red
property uchar green
property uchar blue
end_header
-0.272829 0.0405531 0.527368 255 255 255
0.298365 0.0462348 0.625501 255 255 255
0.253407 0.0511302 0.679529 255 255 255
-0.273886 0.041141 0.526171 255 255 255
0.268014 0.0512595 0.660925 255 255 255
0.274021 0.0508435 0.653859 255 255 255
0.284678 0.0500706 0.641891 255 255 255
0.244923 0.0558178 0.689283 255 255 255
0.282522 0.0519947 0.643537 255 255 255
0.225743 0.0585261 0.712772 255 255 255
0.225719 0.0585126 0.712726 255 255 255
0.227713 0.0585359 0.710619 255 255 255
0.275521 0.0536905 0.651854 255 255 255
0.220795 0.0596651 0.718707 255 255 255
0.220832 0.0596755 0.718747 255 255 255
0.259928 0.0555914 0.670887 255 255 255
0.259926 0.055603 0.670874 255 255 255
0.273983 0.0541789 0.65416 255 255 255
0.281337 0.0538616 0.644847 255 255 255
0.281337 0.0538616 0.644847 255 255 255
0.108068 0.0673547 0.798257 255 255 255
0.277053 0.0546013 0.649747 255 255 255
0.270189 0.0558533 0.65781 255 255 255
0.287123 0.0542084 0.638038 255 255 255
0.229081 0.0605598 0.708042 255 255 255
0.229081 0.0605598 0.708042 255 255 255
0.301639 0.0531204 0.620536 255 255 255
-0.0837779 0.0600263 0.683458 255 255 255
0.267453 0.0574227 0.661742 255 255 255
0.257479 0.0589107 0.673855 255 255 255
0.297372 0.0559676 0.625007 255 255 255
0.297372 0.0559676 0.625007 255 255 255
0.109981 0.0725156 0.800296 255 255 255
0.211423 0.0674093 0.72908 255 255 255
0.270004 0.0607245 0.657019 255 255 255
0.228079 0.0661217 0.709806 255 255 255
0.114219 0.0761795 0.799311 255 255 255
-0.0101045 0.0738254 0.744145 255 255 255
0.275039 0.0648485 0.650134 255 255 255
0.268128 0.0659871 0.65929 255 255 255
0.268137 0.0660088 0.659297 255 255 255
0.269369 0.0656602 0.657025 255 255 255
0.280015 0.0642256 0.645233 255 255 255
0.102056 0.0801844 0.799305 255 255 255
-0.210111 0.0592704 0.573901 255 255 255
0.256738 0.068417 0.672589 255 255 255
0.291969 0.0641866 0.630324 255 255 255
0.223112 0.0728262 0.713244 255 255 255
0.263407 0.0678515 0.664628 255 255 255
0.267429 0.0683135 0.660645 255 255 255
0.0865095 0.083466 0.79973 255 255 255
0.0864749 0.0835432 0.799308 255 255 255
0.144248 0.0851261 0.809749 255 255 255
0.228134 0.074626 0.70746 255 255 255
0.228134 0.074626 0.70746 255 255 255
0.2957 0.0661179 0.625591 255 255 255
0.25658 0.0712668 0.671992 255 255 255
0.215121 0.0768227 0.724017 255 255 255
-0.169343 0.0609025 0.553411 255 255 255
0.281009 0.0692438 0.643174 255 255 255
0.286372 0.0695744 0.636461 255 255 255
-0.215351 0.0637849 0.571413 255 255 255
0.278874 0.070646 0.645076 255 255 255
0.260624 0.0743203 0.667105 255 255 255
0.274769 0.0727144 0.650394 255 255 255
0.221493 0.0807584 0.7143 255 255 255
0.237692 0.0795603 0.694562 255 255 255
0.247497 0.0786073 0.681752 255 255 255
0.0881728 0.0917273 0.795636 255 255 255
0.276026 0.0759377 0.647245 255 255 255
0.256116 0.0790167 0.671475 255 255 255
0.209518 0.0854513 0.72777 255 255 255
0.221434 0.084233 0.713636 255 255 255
0.223131 0.0843822 0.711196 255 255 255
0.254517 0.0795891 0.673397 255 255 255
0.262249 0.078985 0.663348 255 255 255
0.229017 0.0840776 0.704881 255 255 255
0.211284 0.0874959 0.726708 255 255 255
-0.224686 0.0693487 0.562614 255 255 255
0.208805 0.0883807 0.73065 255 255 255
0.237345 0.0848601 0.694135 255 255 255
0.226385 0.0866827 0.705901 255 255 255
0.300904 0.0760687 0.61704 255 255 255
-0.101252 0.0832809 0.664215 255 255 255
0.240234 0.086832 0.690095 255 255 255
0.243767 0.0874913 0.686727 255 255 255
0.108058 0.101097 0.789882 255 255 255
0.0980474 0.101455 0.790835 255 255 255
0.318258 0.0774263 0.595833 255 255 255
-0.0310903 0.0936677 0.720895 255 255 255
-0.0451615 0.0937862 0.709478 255 255 255
0.25858 0.0888984 0.666924 255 255 255
-0.0174697 0.097976 0.732534 255 255 255
0.269558 0.0876355 0.65382 255 255 255
0.242973 0.092003 0.685272 255 255 255
0.222537 0.0954465 0.710523 255 255 255
0.222537 0.0954465 0.710523 255 255 255
0.244843 0.0924727 0.683046 255 255 255
0.26095 0.0906188 0.662843 255 255 255
0.0431025 0.107185 0.781383 255 255 255
0.255033 0.0927046 0.670141 255 255 255
0.307639 0.0841886 0.607749 255 255 255
0.0839661 0.110342 0.798412 255 255 255
-0.271812 0.0742802 0.521002 255 255 255
0.307115 0.0863896 0.608066 255 255 255
0.309201 0.0872593 0.604838 255 255 255
0.0949368 0.113524 0.788681 255 255 255
0.263719 0.0962337 0.658994 255 255 255
-0.282933 0.0780487 0.511329 255 255 255
0.263756 0.0992544 0.659046 255 255 255
0.215393 0.111506 0.718657 255 255 255
0.0891705 0.122133 0.789215 255 255 255
-0.278108 0.0830586 0.514204 255 255 255
0.173276 0.12208 0.767697 255 255 255
0.173216 0.122029 0.767319 255 255 255
-0.0984617 0.106135 0.661587 255 255 255
-0.0984812 0.106144 0.661641 255 255 255
0.110563 0.126154 0.7896 255 255 255
0.240826 0.111213 0.684532 255 255 255
0.261385 0.108689 0.659368 255 255 255
0.243286 0.113208 0.679978 255 255 255
0.258875 0.110308 0.661298 255 255 255
0.199968 0.124905 0.735927 255 255 255
0.256427 0.113979 0.665262 255 255 255
0.24716 0.117102 0.676458 255 255 255
0.248257 0.116997 0.672874 255 255 255
0.270791 0.116785 0.660678 255 255 255
0.24634 0.120627 0.676355 255 255 255
0.223448 0.129545 0.708507 255 255 255
0.262969 0.120364 0.655884 255 255 255
-0.270099 0.0983351 0.517903 255 255 255
0.239401 0.128594 0.682994 255 255 255
0.179407 0.142363 0.755556 255 255 255
0.247016 0.128817 0.671745 255 255 255
0.0957071 0.148649 0.781578 255 255 255
0.0957078 0.148684 0.781561 255 255 255
0.157919 0.152337 0.78749 255 255 255
-0.246877 0.110191 0.534679 255 255 255
0.221374 0.148333 0.711266 255 255 255
0.250886 0.141554 0.666509 255 255 255
0.237164 0.146368 0.681978 255 255 255
0.228848 0.149991 0.696323 255 255 255
0.215633 0.153721 0.710232 255 255 255
0.256763 0.147588 0.65727 255 255 255
-0.0999361 0.147238 0.652266 255 255 255
-0.0999492 0.147249 0.652297 255 255 255
0.212603 0.160641 0.711307 255 255 255
0.239356 0.153627 0.6786 255 255 255
0.241879 0.155315 0.674516 255 255 255
-0.148072 0.142112 0.611985 255 255 255
-0.246928 0.127044 0.531818 255 255 255
-0.262309 0.124892 0.519464 255 255 255
0.24437 0.160154 0.67036 255 255 255
0.24437 0.160154 0.67036 255 255 255
-0.256156 0.127322 0.523837 255 255 255
0.218806 0.169707 0.702255 255 255 255
-0.25493 0.128491 0.52477 255 255 255
0.241526 0.16603 0.673372 255 255 255
0.249045 0.166036 0.660161 255 255 255
0.249045 0.166036 0.660161 255 255 255
0.256994 0.164666 0.652117 255 255 255
0.23925 0.170935 0.672365 255 255 255
0.289726 0.138481 0.534226 255 255 255
0.257447 0.167073 0.651289 255 255 255
0.108351 0.198289 0.777559 255 255 255
0.229507 0.175474 0.681344 255 255 255
0.229507 0.175474 0.681344 255 255 255
0.238746 0.17348 0.673025 255 255 255
0.238746 0.17348 0.673025 255 255 255
-0.238034 0.139975 0.536641 255 255 255
0.299554 0.141985 0.534657 255 255 255
-0.268726 0.135335 0.510857 255 255 255
0.232783 0.178062 0.674789 255 255 255
-0.256897 0.139011 0.52076 255 255 255
-0.109725 0.147857 0.542276 255 255 255
0.0187839 0.101715 0.305195 255 255 255
-0.276637 -0.116885 0.555616 255 255 255
-0.209894 -0.118678 0.612649 255 255 255
-0.136608 -0.109544 0.671705 255 255 255
-0.127737 -0.0997042 0.678067 255 255 255
0.248277 -0.104254 0.707765 255 255 255
-0.106323 -0.0933055 0.697178 255 255 255
-0.149631 -0.0861191 0.657809 255 255 255
0.167059 -0.111247 0.864429 255 255 255
0.167229 -0.11125 0.864977 255 255 255
-0.147626 -0.0803078 0.657621 255 255 255
0.31905 -0.0631234 0.620026 255 255 255
0.31905 -0.0631234 0.620026 255 255 255
-0.149302 -0.0538332 0.650869 255 255 255
-0.27789 -0.0418321 0.540083 255 255 255
-0.277611 -0.038194 0.539411 255 255 255
0.252311 -0.0518834 0.700049 255 255 255
0.243919 -0.0520257 0.711158 255 255 255
0.265694 -0.0399515 0.681517 255 255 255
0.268104 -0.0359921 0.677472 255 255 255
0.236569 -0.0348194 0.716056 255 255 255
0.252266 -0.0336494 0.696731 255 255 255
-0.270729 -0.0224622 0.542175 255 255 255
-0.270732 -0.0224373 0.542169 255 255 255
-0.171226 -0.0238889 0.625129 255 255 255
0.253098 -0.0271008 0.694841 255 255 255
0.264828 -0.0160675 0.677941 255 255 255
0.247964 -0.0156121 0.697776 255 255 255
0.267595 -0.0138166 0.673796 255 255 255
0.226989 -0.013823 0.72447 255 255 255
0.289586 -0.0131489 0.646329 255 255 255
0.277721 -0.0114643 0.661001 255 255 255
-0.224622 -0.00403889 0.581448 255 255 255
0.234256 -0.00618268 0.714049 255 255 255
0.22616 -0.00418193 0.723806 255 255 255
-0.208911 -0.00037305 0.589566 255 255 255
-0.253939 0.00115783 0.551284 255 255 255
0.237732 0.00738876 0.707091 255 255 255
0.237658 0.00738235 0.706904 255 255 255
0.244283 0.0076952 0.699282 255 255 255
0.239695 0.00949522 0.704924 255 255 255
0.278964 0.00823494 0.661845 255 255 255
0.237882 0.0130187 0.705731 255 255 255
0.239733 0.0143361 0.702865 255 255 255
-0.257831 0.0151746 0.545383 255 255 255
0.26962 0.016988 0.666569 255 255 255
-0.269144 0.0177385 0.535381 255 255 255
0.261615 0.0204553 0.675726 255 255 255
0.220864 0.0232491 0.73069 255 255 255
0.215524 0.024235 0.739416 255 255 255
-0.256173 0.0215434 0.545464 255 255 255
-0.177108 0.0237397 0.616568 255 255 255
0.242838 0.0253373 0.697403 255 255 255
0.248985 0.0271778 0.689181 255 255 255
0.241415 0.0288364 0.698366 255 255 255
0.00811765 0.0379851 0.765291 255 255 255
0.170154 0.0392901 0.793041 255 255 255
-0.03886 0.0405355 0.732716 255 255 255
0.276707 0.0410791 0.652678 255 255 255
-0.276267 0.0359191 0.52559 255 255 255
0.296414 0.0412718 0.628377 255 255 255
0.277896 0.0437602 0.651388 255 255 255
0.287356 0.0443432 0.640275 255 255 255
0.274145 0.0479374 0.655324 255 255 255
0.283211 0.0488878 0.644248 255 255 255
0.25996 0.0521273 0.671863 255 255 255
0.255119 0.0543111 0.6771 255 255 255
0.285224 0.0531723 0.6402 255 255 255
0.285224 0.0531723 0.6402 255 255 255
0.298841 0.0531117 0.623811 255 255 255
0.21277 0.0638751 0.727699 255 255 255
0.0310305 0.0693068 0.776612 255 255 255
0.275422 0.0580399 0.65128 255 255 255
0.275403 0.0580459 0.651309 255 255 255
0.256669 0.0618547 0.672795 255 255 255
0.261838 0.0613761 0.667079 255 255 255
0.246844 0.0637456 0.68574 255 255 255
0.276063 0.0621459 0.649477 255 255 255
0.214516 0.0709266 0.724986 255 255 255
0.240437 0.0681872 0.692014 255 255 255
0.258789 0.0683958 0.670173 255 255 255
0.285737 0.0652876 0.637145 255 255 255
0.22503 0.0742624 0.711114 255 255 255
0.236296 0.073799 0.696438 255 255 255
-0.257604 0.0592629 0.536352 255 255 255
-0.254076 0.0618691 0.539254 255 255 255
0.246218 0.0792603 0.683238 255 255 255
0.240276 0.0816316 0.690791 255 255 255
0.237844 0.0822282 0.69305 255 255 255
0.266625 0.0795216 0.658386 255 255 255
0.271969 0.0791376 0.651613 255 255 255
0.302619 0.0750107 0.61568 255 255 255
0.261101 0.0817449 0.664764 255 255 255
0.258576 0.0830242 0.666356 255 255 255
0.237477 0.0882601 0.69347 255 255 255
0.313118 0.0792453 0.601885 255 255 255
0.23699 0.0907412 0.689913 255 255 255
0.24647 0.0902352 0.682658 255 255 255
0.227388 0.0937771 0.704735 255 255 255
0.264648 0.0888263 0.65886 255 255 255
0.243952 0.0955854 0.683118 255 255 255
0.246274 0.0972018 0.680777 255 255 255
0.248295 0.0979927 0.677913 255 255 255
0.310037 0.0899078 0.605132 255 255 255
-0.243383 0.0841568 0.543695 255 255 255
0.241433 0.105775 0.684512 255 255 255
0.241433 0.105775 0.684512 255 255 255
0.246851 0.11046 0.675625 255 255 255
0.246851 0.11046 0.675625 255 255 255
0.264119 0.108098 0.658249 255 255 255
0.263361 0.112256 0.657261 255 255 255
0.259502 0.122391 0.659417 255 255 255
0.257623 0.124533 0.661201 255 255 255
0.246131 0.131044 0.674581 255 255 255
0.245369 0.134837 0.674559 255 255 255
0.242891 0.136024 0.677147 255 255 255
0.242891 0.136024 0.677147 255 255 255
-0.112455 0.131291 0.649845 255 255 255
0.212922 0.145885 0.714509 255 255 255
0.226417 0.144685 0.699213 255 255 255
0.252527 0.13951 0.663802 255 255 255
0.224453 0.15008 0.70087 255 255 255
-0.269985 0.115114 0.514745 255 255 255
0.242545 0.158938 0.673083 255 255 255
0.24098 0.164205 0.674834 255 255 255
0.290712 0.13879 0.531779 255 255 255
0.255059 0.168598 0.653601 255 255 255
-0.225745 0.141502 0.547033 255 255 255
-0.223353 0.146398 0.544671 255 255 255
-0.313018 -0.194867 0.568904 255 255 255
-0.273308 -0.119162 0.559755 255 255 255
0.0646046 -0.108516 0.859853 255 255 255
-0.0720188 -0.0743252 0.720831 255 255 255
-0.00566992 -0.0659903 0.775638 255 255 255
0.247442 -0.0549082 0.706273 255 255 255
0.250065 -0.0466176 0.701243 255 255 255
0.250065 -0.0466176 0.701243 255 255 255
0.252847 -0.0459106 0.698421 255 255 255
0.261304 -0.0404431 0.68647 255 255 255
0.272552 -0.0283723 0.670306 255 255 255
0.263326 -0.0274171 0.682032 255 255 255
0.0903569 -0.0301646 0.817741 255 255 255
0.273131 -0.0201001 0.668059 255 255 255
0.252899 -0.0146027 0.692722 255 255 255
0.284024 -0.0123439 0.654288 255 255 255
-0.183552 -0.00597635 0.613544 255 255 255
0.228229 -0.0064092 0.720826 255 255 255
0.248035 -0.00618354 0.696621 255 255 255
0.26895 -0.00629281 0.671099 255 255 255
0.261758 -0.00358527 0.679247 255 255 255
0.219947 0.00422513 0.730033 255 255 255
0.296639 0.0039996 0.635305 255 255 255
0.268052 0.00562573 0.670933 255 255 255
0.250849 0.0104675 0.689059 255 255 255
0.250861 0.0104801 0.689084 255 255 255
0.114618 0.0198895 0.807373 255 255 255
0.0911794 0.0229106 0.806733 255 255 255
0.226182 0.021599 0.725434 255 255 255
0.218721 0.0237491 0.735456 255 255 255
0.294773 0.022065 0.636605 255 255 255
0.24622 0.0268995 0.692957 255 255 255
-0.277509 0.0237328 0.52683 255 255 255
0.172248 0.0354895 0.79153 255 255 255
0.262261 0.0340195 0.671399 255 255 255
0.244396 0.0385881 0.695272 255 255 255
0.273769 0.0390285 0.657031 255 255 255
0.251635 0.0411856 0.683383 255 255 255
0.251635 0.0411856 0.683383 255 255 255
0.24326 0.0431158 0.693747 255 255 255
0.26515 0.0424368 0.666406 255 255 255
0.299055 0.0430902 0.624503 255 255 255
0.218072 0.0523625 0.724647 255 255 255
0.218072 0.0523625 0.724647 255 255 255
0.279412 0.0487843 0.647899 255 255 255
0.286978 0.0481642 0.639268 255 255 255
0.228696 0.0540502 0.709011 255 255 255
-0.278606 0.0417932 0.52237 255 255 255
0.251311 0.0534017 0.680648 255 255 255
0.251223 0.0534587 0.680393 255 255 255
0.263652 0.0523638 0.667551 255 255 255
0.172199 0.064022 0.777482 255 255 255
0.248846 0.0561117 0.683745 255 255 255
0.295627 0.0518403 0.62856 255 255 255
0.295627 0.0518403 0.62856 255 255 255
0.223111 0.0611446 0.715286 255 255 255
0.246633 0.0582704 0.685746 255 255 255
-0.2136 0.0514297 0.574457 255 255 255
0.283626 0.0563055 0.640919 255 255 255
0.249739 0.0600146 0.680395 255 255 255
0.152201 0.0734345 0.80123 255 255 255
0.283237 0.0598134 0.641816 255 255 255
-0.226129 0.0544195 0.564289 255 255 255
-0.367196 0.0377158 0.448291 255 255 255
0.265513 0.0633475 0.662821 255 255 255
0.289369 0.0607225 0.634275 255 255 255
0.289313 0.0607579 0.634153 255 255 255
-0.270947 0.0519354 0.526595 255 255 255
0.22729 0.0688733 0.708444 255 255 255
-0.220562 0.0578734 0.567663 255 255 255
0.277592 0.0660603 0.647272 255 255 255
0.238317 0.071322 0.694845 255 255 255
0.230999 0.0780207 0.702555 255 255 255
0.258359 0.0780866 0.669856 255 255 255
0.278727 0.0755629 0.644519 255 255 255
0.252206 0.0795507 0.675955 255 255 255
0.256794 0.0819195 0.671286 255 255 255
0.268554 0.0822448 0.655571 255 255 255
0.210062 0.0914271 0.725157 255 255 255
0.309729 0.0836665 0.605392 255 255 255
0.23136 0.096519 0.69744 255 255 255
0.257435 0.0925532 0.667262 255 255 255
0.0916834 0.109664 0.78947 255 255 255
0.313584 0.090137 0.600318 255 255 255
0.31341 0.0900672 0.599983 255 255 255
0.243661 0.106149 0.681453 255 255 255
0.166346 0.125059 0.780321 255 255 255
0.215594 0.115666 0.718118 255 255 255
0.248398 0.113335 0.674315 255 255 255
0.24187 0.119389 0.681018 255 255 255
0.24187 0.119389 0.681018 255 255 255
0.245049 0.126689 0.67546 255 255 255
0.262328 0.129669 0.653656 255 255 255
0.261341 0.135534 0.655312 255 255 255
0.261341 0.135534 0.655312 255 255 255
0.249622 0.138804 0.668911 255 255 255
0.2466 0.141524 0.67062 255 255 255
0.2466 0.141524 0.67062 255 255 255
0.262685 0.138392 0.652849 255 255 255
0.252504 0.142758 0.662588 255 255 255
0.241722 0.151186 0.676779 255 255 255
0.171084 0.169197 0.758852 255 255 255
0.249913 0.151301 0.66665 255 255 255
0.262753 0.149006 0.651559 255 255 255
0.247333 0.160262 0.667199 255 255 255
0.248115 0.172061 0.659002 255 255 255
0.0999149 -0.180077 0.845321 255 255 255
0.252294 -0.0948569 0.707497 255 255 255
-0.218901 -0.0668067 0.59637 255 255 255
-0.0629988 -0.0793114 0.729983 255 255 255
-0.278431 -0.0558272 0.542231 255 255 255
-0.0941435 -0.0592574 0.699506 255 255 255
0.289822 -0.0523115 0.653995 255 255 255
0.278213 -0.0494582 0.667219 255 255 255
-0.198366 -0.0312841 0.603515 255 255 255
0.270735 -0.0248451 0.672296 255 255 255
0.0328054 -0.0150082 0.796121 255 255 255
0.235234 -0.011035 0.712642 255 255 255
0.270678 -0.00955192 0.669565 255 255 255
0.00931524 0.000718536 0.77263 255 255 255
0.291178 0.0051562 0.648915 255 255 255
0.0587596 0.00940417 0.815425 255 255 255
0.250727 0.0178572 0.688043 255 255 255
0.250731 0.0178158 0.688053 255 255 255
0.250913 0.0232121 0.687245 255 255 255
0.0819345 0.0296646 0.814313 255 255 255
0.256798 0.0297206 0.680697 255 255 255
0.248033 0.0336058 0.689096 255 255 255
0.299719 0.0314075 0.626149 255 255 255
0.280442 0.0359059 0.649933 255 255 255
0.280294 0.0358404 0.649695 255 255 255
0.0455871 0.0487422 0.799659 255 255 255
0.229526 0.0488371 0.707585 255 255 255
-0.0171677 0.0572744 0.739325 255 255 255
0.278243 0.0526214 0.649083 255 255 255
0.242571 0.0609472 0.69168 255 255 255
0.278956 0.058918 0.64756 255 255 255
0.278956 0.058918 0.64756 255 255 255
0.233168 0.0644946 0.698499 255 255 255
0.280916 0.065969 0.64362 255 255 255
0.281016 0.0659684 0.64381 255 255 255
0.296065 0.0694828 0.624831 255 255 255
0.269587 0.0745442 0.65547 255 255 255
0.296609 0.0746894 0.622691 255 255 255
0.229702 0.0879714 0.700441 255 255 255
0.229954 0.0880602 0.701114 255 255 255
0.300838 0.079176 0.616926 255 255 255
0.074716 0.103867 0.808451 255 255 255
-0.0989832 0.0873142 0.664962 255 255 255
0.145402 0.111559 0.804839 255 255 255
0.304864 0.0860956 0.610588 255 255 255
0.306513 0.0913777 0.608731 255 255 255
0.248841 0.106169 0.674719 255 255 255
0.263617 0.104022 0.658705 255 255 255
0.259912 0.106134 0.662152 255 255 255
0.100535 0.129708 0.79043 255 255 255
0.256857 0.110719 0.664336 255 255 255
0.240246 0.114364 0.682319 255 255 255
-0.224229 0.0962465 0.562882 255 255 255
0.23856 0.120646 0.684965 255 255 255
0.261106 0.115769 0.659564 255 255 255
0.237992 0.127282 0.684523 255 255 255
0.261273 0.123647 0.659503 255 255 255
0.242487 0.132038 0.67888 255 255 255
0.256944 0.12963 0.660901 255 255 255
-0.22864 0.111344 0.555622 255 255 255
0.186573 0.150276 0.749851 255 255 255
-0.231481 0.115638 0.55271 255 255 255
0.243646 0.140057 0.675154 255 255 255
0.256531 0.138293 0.660555 255 255 255
-0.242794 0.121891 0.536888 255 255 255
0.230541 0.158736 0.686088 255 255 255
-0.0993511 0.15067 0.65184 255 255 255
-0.231208 0.130262 0.544647 255 255 255
0.215784 0.174373 0.700356 255 255 255
0.214452 0.1806 0.702352 255 255 255
0.240357 0.173606 0.669454 255 255 255
0.252754 -0.0951158 0.70809 255 255 255
0.0478096 -0.0769594 0.821318 255 255 255
0.289928 -0.056532 0.653398 255 255 255
0.258736 -0.0199727 0.688021 255 255 255
0.254813 -0.00558593 0.688563 255 255 255
-0.273098 -0.0009202 0.535853 255 255 255
-0.177778 8.51743e-06 0.620863 255 255 255
-0.254988 0.00163391 0.550302 255 255 255
0.227052 0.00169793 0.723927 255 255 255
0.271619 0.0082782 0.667789 255 255 255
0.21016 0.0258284 0.741414 255 255 255
0.1675 0.0359633 0.796772 255 255 255
0.209843 0.0348479 0.73959 255 255 255
0.255384 0.0346283 0.680229 255 255 255
0.295522 0.037597 0.629857 255 255 255
0.238627 0.0427928 0.700509 255 255 255
0.224585 0.0504194 0.718698 255 255 255
0.262556 0.0571457 0.666187 255 255 255
0.224456 0.0661159 0.713088 255 255 255
0.23838 0.0635324 0.695578 255 255 255
0.219942 0.0761518 0.716807 255 255 255
0.229954 0.0829631 0.705717 255 255 255
-0.0986105 0.0816872 0.666428 255 255 255
-0.087277 0.0845698 0.675331 255 255 255
0.314883 0.08274 0.599301 255 255 255
0.241858 0.100893 0.683918 255 255 255
0.257415 0.119736 0.662796 255 255 255
0.241721 0.125819 0.68052 255 255 255
0.164844 0.14383 0.777164 255 255 255
0.237764 0.150622 0.679304 255 255 255
-0.0147669 -0.0842048 0.771628 255 255 255
0.293295 0.032353 0.635649 255 255 255
0.210777 0.0544375 0.732018 255 255 255
0.268297 0.0523912 0.660435 255 255 255
0.0990946 0.0734763 0.799941 255 255 255
0.219182 0.0887705 0.715309 255 255 255
0.238347 0.108036 0.687166 255 255 255
0.119661 0.131523 0.783601 255 255 255
0.269055 0.126968 0.657518 255 255 255
0.251597 0.13597 0.665151 255 255 255
0.239985 0.161271 0.676713 255 255 255
0.252064 0.157009 0.661158 255 255 255
0.252064 0.157009 0.661158 255 255 255
0.257774 0.157192 0.656535 255 255 255
0.262017 0.164641 0.650174 255 255 255
0.271669 -0.0535119 0.680277 255 255 255
0.135486 -0.0506837 0.832566 255 255 255
-0.0400215 -0.0212213 0.736793 255 255 255
0.135481 -0.0233797 0.82714 255 255 255
0.135481 -0.0233797 0.82714 255 255 255
0.089465 -0.0103853 0.817234 255 255 255
0.299568 -0.00451518 0.633923 255 255 255
-0.0714972 0.0139848 0.703837 255 255 255
0.171453 0.0256426 0.788136 255 255 255
0.157781 0.0288744 0.803742 255 255 255
0.102418 0.0620705 0.797518 255 255 255
0.236904 0.0946409 0.689671 255 255 255
0.253334 0.148298 0.662785 255 255 255
0.213137 0.0139124 0.738479 255 255 255
0.26425 0.0275858 0.670043 255 255 255
0.295599 0.060765 0.626954 255 255 255
0.26668 0.0673223 0.660908 255 255 255
0.232328 -0.0179687 0.717724 255 255 255
0.275381 0.0341694 0.661081 255 255 255
0.163243 0.113723 0.779255 255 255 255
-0.0588537 -0.0234777 0.719447 255 255 255
0.116443 0.0539371 0.806987 255 255 255
0.250034 0.0641038 0.682008 255 255 255
0.222226 0.115539 0.717124 255 255 255
0.161034 -0.00017499 0.810296 255 255 255
0.160823 -0.000364767 0.809663 255 255 255
0.309972 0.00932041 0.619683 255 255 255
-0.271754 -0.0971171 0.555717 255 255 255
-0.207898 -0.110182 0.611853 255 255 255
0.111907 -0.191963 0.850071 255 255 255
0.111907 -0.191963 0.850071 255 255 255
-0.285164 -0.0672131 0.538283 255 255 255
0.0618438 -0.165549 0.867094 255 255 255
-0.25372 -0.065231 0.564565 255 255 255
0.246021 -0.181367 0.916622 255 255 255
-0.103835 -0.0923096 0.698165 255 255 255
0.024248 -0.125736 0.848517 255 255 255
-0.134692 -0.0798693 0.668837 255 255 255
-0.0671046 -0.0825066 0.727283 255 255 255
-0.135987 -0.0624809 0.66442 255 255 255
-0.0134326 -0.0786041 0.771481 255 255 255
-0.207437 -0.0387816 0.598059 255 255 255
0.0949745 -0.0801493 0.827271 255 255 255
-0.0691461 -0.054362 0.719595 255 255 255
0.0587272 -0.0677657 0.830149 255 255 255
-0.067155 -0.0469031 0.719824 255 255 255
-0.110819 -0.0382224 0.680741 255 255 255
0.102434 -0.066117 0.824663 255 255 255
0.234621 -0.0688176 0.725323 255 255 255
0.110542 -0.0639304 0.827777 255 255 255
0.175084 -0.0672534 0.798437 255 255 255
0.0984564 -0.0603538 0.82804 255 255 255
-0.208435 -0.0180872 0.593119 255 255 255
0.148561 -0.0605623 0.831565 255 255 255
0.295319 -0.0608162 0.649135 255 255 255
0.0751561 -0.0518582 0.838325 255 255 255
0.264541 -0.0434449 0.683196 255 255 255
0.014175 -0.0267233 0.78405 255 255 255
-0.0364918 -0.00308956 0.736153 255 255 255
0.270096 -0.0351786 0.674533 255 255 255
0.258742 -0.0322839 0.689292 255 255 255
0.258738 -0.0322753 0.6893 255 255 255
0.0541138 -0.0193398 0.816988 255 255 255
0.149131 -0.0194926 0.823427 255 255 255
0.0990048 -0.013098 0.818439 255 255 255
0.346822 -0.0255249 0.578615 255 255 255
-0.202411 0.0138304 0.59196 255 255 255
0.279087 -0.0148954 0.65987 255 255 255
-0.128151 0.0148565 0.654808 255 255 255
0.243023 -0.00976933 0.70417 255 255 255
0.245865 -0.00638432 0.699116 255 255 255
0.258134 -0.00644207 0.683049 255 255 255
-0.0755268 0.0175219 0.70013 255 255 255
0.270772 -0.00305678 0.668766 255 255 255
0.247113 0.000333697 0.697304 255 255 255
0.242836 0.00248402 0.700598 255 255 255
0.227341 0.00453015 0.721644 255 255 255
0.224091 0.00512314 0.724666 255 255 255
-0.271951 0.0407647 0.528818 255 255 255
-0.0191112 0.0357294 0.742912 255 255 255
0.272252 0.0179929 0.665162 255 255 255
0.232939 0.0250244 0.711164 255 255 255
0.232901 0.0337455 0.708409 255 255 255
0.245632 0.0331333 0.692595 255 255 255
0.267708 0.0339256 0.665501 255 255 255
0.262116 0.0356603 0.671578 255 255 255
0.245147 0.0384273 0.692706 255 255 255
0.221792 0.0424149 0.722823 255 255 255
0.23959 0.0404623 0.698855 255 255 255
0.242394 0.0404926 0.695581 255 255 255
0.256627 0.0407238 0.677974 255 255 255
0.224755 0.0480143 0.720443 255 255 255
-0.0736836 0.0623779 0.691683 255 255 255
-0.213546 0.0619785 0.572668 255 255 255
-0.214219 0.0629803 0.572018 255 255 255
0.149988 0.0677044 0.805845 255 255 255
0.112186 0.0742578 0.799935 255 255 255
0.213364 0.0642041 0.726532 255 255 255
-0.019843 0.0741379 0.734165 255 255 255
-0.019843 0.0741379 0.734165 255 255 255
0.253207 0.0608479 0.677949 255 255 255
0.0413011 0.0829594 0.786264 255 255 255
0.28094 0.0730135 0.642904 255 255 255
0.212359 0.0849078 0.72517 255 255 255
-0.0634825 0.0906259 0.694242 255 255 255
0.0364068 0.0990539 0.777817 255 255 255
0.293197 0.0740295 0.627829 255 255 255
-0.0431659 0.0962064 0.710671 255 255 255
0.0950702 0.10344 0.790632 255 255 255
0.245407 0.0856417 0.683507 255 255 255
-0.077999 0.0956358 0.680108 255 255 255
0.229288 0.0913192 0.703179 255 255 255
0.089465 0.106767 0.791329 255 255 255
0.218164 0.0936638 0.715755 255 255 255
0.307862 0.0822517 0.607404 255 255 255
0.082268 0.115652 0.79891 255 255 255
0.0914012 0.11508 0.788682 255 255 255
-0.0662185 0.111419 0.687878 255 255 255
0.252937 0.102715 0.669676 255 255 255
-0.0720608 0.111895 0.683139 255 255 255
-0.030228 0.116459 0.717326 255 255 255
-0.0777394 0.112654 0.677527 255 255 255
0.307366 0.0945409 0.608108 255 255 255
-0.0290101 0.118439 0.717287 255 255 255
-0.151384 0.107954 0.614704 255 255 255
-0.193283 0.103886 0.581945 255 255 255
-0.064314 0.121401 0.687898 255 255 255
-0.194343 0.108624 0.580305 255 255 255
-0.151333 0.116429 0.61377 255 255 255
-0.22626 0.109058 0.55834 255 255 255
-0.0719901 0.128755 0.679904 255 255 255
-0.0599361 0.130726 0.690574 255 255 255
-0.0622478 0.131708 0.686675 255 255 255
0.256081 0.1265 0.66282 255 255 255
0.180196 0.144532 0.754302 255 255 255
-0.0652517 0.13654 0.683977 255 255 255
-0.0746056 0.135269 0.675718 255 255 255
-0.151304 0.124623 0.610983 255 255 255
-0.0641765 0.138164 0.68459 255 255 255
-0.192059 0.119843 0.579748 255 255 255
0.250457 0.131985 0.667262 255 255 255
-0.0183315 0.14541 0.722896 255 255 255
-0.138729 0.128253 0.62213 255 255 255
-0.193213 0.120741 0.578841 255 255 255
-0.194225 0.125522 0.577052 255 255 255
-0.0717368 0.145463 0.676541 255 255 255
0.029836 0.162303 0.758681 255 255 255
-0.190153 0.127281 0.579953 255 255 255
-0.062019 0.148568 0.683455 255 255 255
-0.0603427 0.150663 0.684676 255 255 255
0.25911 0.14629 0.655823 255 255 255
-0.0306415 0.159347 0.708517 255 255 255
-0.0579054 0.155093 0.685561 255 255 255
-0.0287557 0.16051 0.708936 255 255 255
-0.14109 0.144518 0.616651 255 255 255
-0.0712427 0.166846 0.672389 255 255 255
0.303857 0.141691 0.527019 255 255 255
0.303309 0.145648 0.527761 255 255 255
0.303309 0.145648 0.527761 255 255 255
-0.294004 -0.129062 0.543786 255 255 255
-0.284389 -0.108139 0.547074 255 255 255
-0.241607 -0.123902 0.585346 255 255 255
-0.269548 -0.104053 0.558844 255 255 255
-0.263144 -0.0989543 0.564023 255 255 255
0.0769383 -0.199122 0.872823 255 255 255
0.0946815 -0.191985 0.852044 255 255 255
-0.153983 -0.110387 0.658069 255 255 255
-0.291357 -0.0646253 0.533284 255 255 255
-0.107309 -0.0991536 0.695877 255 255 255
-0.25376 -0.0589661 0.563482 255 255 255
-0.259283 -0.0555402 0.558364 255 255 255
-0.119417 -0.0887964 0.689239 255 255 255
-0.13518 -0.0833295 0.669217 255 255 255
-0.107554 -0.0904486 0.698535 255 255 255
0.241147 -0.118152 0.703504 255 255 255
-0.135758 -0.0708498 0.66667 255 255 255
0.114865 -0.116708 0.833754 255 255 255
-0.280967 -0.0342869 0.536112 255 255 255
0.343706 -0.107043 0.598642 255 255 255
-0.275393 -0.0304159 0.540062 255 255 255
-0.0176814 -0.0818414 0.769177 255 255 255
0.112089 -0.0997658 0.834591 255 255 255
-0.170418 -0.0487112 0.625533 255 255 255
-0.208641 -0.0401929 0.597176 255 255 255
0.110279 -0.0916049 0.832869 255 255 255
0.048843 -0.0815669 0.822857 255 255 255
0.0301075 -0.0774889 0.806815 255 255 255
-0.176592 -0.0381569 0.62123 255 255 255
-0.200205 -0.0328631 0.603214 255 255 255
-0.0767166 -0.0530686 0.713431 255 255 255
-0.275347 -0.0163568 0.537316 255 255 255
-0.253651 -0.0192102 0.555595 255 255 255
0.0147935 -0.0620683 0.79178 255 255 255
-0.27066 -0.0155299 0.54088 255 255 255
-0.208629 -0.0200558 0.593491 255 255 255
-0.0849571 -0.0353454 0.702104 255 255 255
-0.10904 -0.029645 0.680589 255 255 255
0.0624171 -0.0486664 0.829593 255 255 255
0.142223 -0.054912 0.838266 255 255 255
-0.202599 -0.00959207 0.596209 255 255 255
-0.214888 -0.00231509 0.584511 255 255 255
-0.114456 -0.0127283 0.672391 255 255 255
-0.130162 -0.00940536 0.658058 255 255 255
-0.053408 -0.00975465 0.72386 255 255 255
0.113138 -0.0200387 0.818609 255 255 255
0.0603095 -0.0119097 0.821338 255 255 255
0.113189 -0.0152183 0.817681 255 255 255
-0.0315451 -0.00386277 0.739552 255 255 255
0.101079 -0.0112645 0.817857 255 255 255
0.230547 -0.0178611 0.721029 255 255 255
0.345502 -0.0219131 0.581204 255 255 255
0.29743 -0.0133186 0.636985 255 255 255
0.245248 -0.00900773 0.700542 255 255 255
0.258275 -0.00952961 0.68396 255 255 255
0.256669 -0.00624875 0.685643 255 255 255
0.283985 -0.00634607 0.654296 255 255 255
-0.242927 0.0284246 0.55551 255 255 255
0.297498 0.0129358 0.633299 255 255 255
-0.279957 0.0411505 0.521357 255 255 255
0.241311 0.0201894 0.700665 255 255 255
0.241304 0.0202147 0.70065 255 255 255
0.3378 0.0105246 0.590947 255 255 255
-0.219579 0.0415347 0.572119 255 255 255
0.213149 0.0260557 0.7409 255 255 255
0.298277 0.018854 0.629949 255 255 255
0.170451 0.0359407 0.793414 255 255 255
0.128568 0.0473616 0.806708 255 255 255
0.254833 0.0339144 0.681237 255 255 255
0.0945975 0.0549564 0.80025 255 255 255
0.222154 0.0449785 0.722126 255 255 255
0.299543 0.0355802 0.625687 255 255 255
0.299556 0.0356064 0.625702 255 255 255
0.248269 0.0448347 0.687165 255 255 255
-0.233695 0.0591283 0.556998 255 255 255
-0.0673987 0.068202 0.695972 255 255 255
0.114125 0.071053 0.800164 255 255 255
-0.27257 0.0642793 0.522732 255 255 255
0.0846423 0.0781557 0.802592 255 255 255
-0.278386 0.0657868 0.517473 255 255 255
-0.264306 0.0669107 0.529341 255 255 255
0.0506884 0.0804014 0.792791 255 255 255
0.0543155 0.0814533 0.796443 255 255 255
0.217202 0.071088 0.723348 255 255 255
-0.109326 0.0700822 0.659719 255 255 255
0.0430945 0.0842296 0.786481 255 255 255
-0.071858 0.0880579 0.687828 255 255 255
0.272089 0.0742216 0.652284 255 255 255
0.303526 0.0694782 0.615321 255 255 255
-0.0451584 0.0935644 0.709507 255 255 255
0.100815 0.0989322 0.791023 255 255 255
0.0493538 0.100676 0.787819 255 255 255
0.113459 0.101088 0.789722 255 255 255
0.207214 0.0924724 0.731419 255 255 255
-0.194709 0.0858374 0.584349 255 255 255
0.243799 0.0888225 0.683723 255 255 255
0.220622 0.094965 0.712289 255 255 255
0.242023 0.0951505 0.686057 255 255 255
0.268131 0.0912073 0.655009 255 255 255
-0.192976 0.0929592 0.58427 255 255 255
0.0917614 0.120904 0.787701 255 255 255
0.0917884 0.120835 0.7873 255 255 255
-0.244111 0.093913 0.540898 255 255 255
0.151958 0.127085 0.794214 255 255 255
-0.0354461 0.119927 0.714839 255 255 255
-0.229712 0.0996764 0.557252 255 255 255
-0.192827 0.109916 0.580853 255 255 255
-0.192776 0.126683 0.577797 255 255 255
0.156254 0.170975 0.785101 255 255 255
0.264335 0.142733 0.650759 255 255 255
-0.0320082 0.157491 0.708198 255 255 255
-0.0321173 0.157489 0.708149 255 255 255
-0.0566492 0.153381 0.685638 255 255 255
-0.27017 0.122453 0.512913 255 255 255
-0.119263 0.136848 0.577424 255 255 255
-0.253993 0.127392 0.525735 255 255 255
-0.0663119 0.166076 0.675846 255 255 255
-0.0532539 0.170134 0.686255 255 255 255
-0.0680995 0.167541 0.674119 255 255 255
0.321687 0.141867 0.537604 255 255 255
-0.243566 -0.128155 0.582356 255 255 255
-0.251038 -0.110202 0.575917 255 255 255
-0.258385 -0.0909205 0.565869 255 255 255
-0.21137 -0.1022 0.607361 255 255 255
0.0856023 -0.193416 0.856368 255 255 255
-0.207112 -0.0965961 0.609609 255 255 255
-0.207115 -0.0965754 0.609596 255 255 255
0.0832874 -0.184024 0.857805 255 255 255
-0.256929 -0.0795462 0.564922 255 255 255
-0.121054 -0.1074 0.685245 255 255 255
-0.269731 -0.0648649 0.551563 255 255 255
-0.0904614 -0.096856 0.709923 255 255 255
-0.137634 -0.0822787 0.667044 255 255 255
-0.0929063 -0.0914415 0.706796 255 255 255
-0.0772078 -0.0902845 0.720902 255 255 255
-0.269384 -0.0359559 0.54558 255 255 255
-0.198273 -0.0472737 0.60634 255 255 255
0.0202429 -0.0829882 0.799812 255 255 255
-0.0666304 -0.0659529 0.723184 255 255 255
-0.122378 -0.0457303 0.676042 255 255 255
-0.256554 -0.0194089 0.55339 255 255 255
-0.256673 -0.0170289 0.552636 255 255 255
0.0741314 -0.0659873 0.841188 255 255 255
0.0742469 -0.0660681 0.841492 255 255 255
-0.180402 -0.0249248 0.617225 255 255 255
0.346255 -0.0695448 0.587421 255 255 255
0.346248 -0.0695601 0.587408 255 255 255
0.0765895 -0.0596098 0.838099 255 255 255
-0.157699 -0.0228491 0.634696 255 255 255
-0.277651 -0.0026837 0.532612 255 255 255
-0.277366 7.85215e-05 0.5321 255 255 255
-0.199293 -0.00966236 0.598694 255 255 255
-0.277301 0.00814368 0.530539 255 255 255
-0.27711 0.0138526 0.529179 255 255 255
0.242951 -0.0238566 0.707054 255 255 255
0.254688 -0.0220563 0.691384 255 255 255
-0.0895823 0.00325235 0.690583 255 255 255
-0.0328291 -0.000315678 0.738955 255 255 255
-0.171704 0.0138274 0.623504 255 255 255
-0.177312 0.0182837 0.617306 255 255 255
-0.0691751 0.0156993 0.704963 255 255 255
0.0912274 0.0108396 0.809518 255 255 255
0.091221 0.0108838 0.809522 255 255 255
0.257809 0.00839374 0.681388 255 255 255
-0.273392 0.0355459 0.527759 255 255 255
0.107852 0.0217943 0.807327 255 255 255
0.239663 0.0143168 0.702761 255 255 255
0.0745588 0.0331379 0.821948 255 255 255
0.221192 0.0231968 0.731555 255 255 255
0.173852 0.0348662 0.787262 255 255 255
0.173852 0.0348662 0.787262 255 255 255
0.268635 0.0383689 0.663021 255 255 255
-0.0325711 0.0601017 0.727718 255 255 255
-0.0325761 0.06011 0.72751 255 255 255
-0.165977 0.0554232 0.556633 255 255 255
-0.253602 0.0598689 0.540177 255 255 255
-0.0378687 0.0674164 0.720642 255 255 255
-0.2311 0.0675062 0.557655 255 255 255
0.272719 0.0622434 0.654023 255 255 255
-0.277996 0.0717103 0.516588 255 255 255
0.290395 0.0655639 0.632063 255 255 255
-0.0320364 0.0871167 0.722176 255 255 255
0.24719 0.0756329 0.681788 255 255 255
0.247248 0.075675 0.681875 255 255 255
-0.191552 0.091393 0.585522 255 255 255
-0.066393 0.119322 0.688247 255 255 255
-0.254867 0.100774 0.530673 255 255 255
-0.254608 0.117376 0.527195 255 255 255
-0.27151 0.124985 0.511268 255 255 255
-0.0439442 0.169614 0.694747 255 255 255
-0.231213 0.141385 0.542826 255 255 255
-0.276731 -0.121857 0.556786 255 255 255
-0.278419 -0.119336 0.555336 255 255 255
-0.237745 -0.118505 0.58852 255 255 255
-0.21152 -0.099655 0.60674 255 255 255
0.289593 -0.208917 0.915472 255 255 255
-0.289509 -0.0637439 0.53446 255 255 255
-0.173072 -0.0456408 0.623292 255 255 255
-0.272413 -0.0248345 0.541325 255 255 255
-0.247882 -0.0292771 0.562501 255 255 255
0.00894078 -0.0583125 0.784326 255 255 255
0.107468 -0.0665644 0.824945 255 255 255
0.100882 -0.0638911 0.825384 255 255 255
0.230479 -0.0368059 0.724099 255 255 255
0.209051 -0.0312077 0.751231 255 255 255
-0.170056 0.002575 0.625556 255 255 255
0.101528 -0.0214602 0.816599 255 255 255
-0.133948 0.00777487 0.651314 255 255 255
0.289859 0.00219569 0.652783 255 255 255
0.172261 0.0354481 0.791418 255 255 255
0.0864001 0.0637729 0.803307 255 255 255
0.214497 0.0709338 0.724932 255 255 255
0.218468 0.0704877 0.719482 255 255 255
0.28859 0.0680119 0.633763 255 255 255
0.264554 0.0789454 0.660799 255 255 255
0.0838487 0.102714 0.799223 255 255 255
-0.0301199 0.153984 0.709489 255 255 255
-0.20182 0.133277 0.550286 255 255 255
-0.27233 0.136663 0.50805 255 255 255
-0.237107 0.153239 0.531025 255 255 255
-0.255686 -0.122594 0.574245 255 255 255
-0.151935 -0.0940182 0.656724 255 255 255
-0.26906 -0.0501797 0.549384 255 255 255
-0.22172 -0.0347238 0.584922 255 255 255
-0.16764 -0.0432389 0.630829 255 255 255
-0.16764 -0.0432389 0.630829 255 255 255
-0.0345581 -0.0294375 0.743631 255 255 255
-0.260187 0.00227264 0.545837 255 255 255
-0.0509235 -0.0208499 0.727658 255 255 255
-0.160769 0.0121106 0.630529 255 255 255
-0.235082 0.023898 0.568704 255 255 255
-0.226937 0.028452 0.57417 255 255 255
0.241596 0.00284723 0.704064 255 255 255
-0.25772 0.035046 0.541519 255 255 255
-0.25772 0.035046 0.541519 255 255 255
-0.0930136 0.0302255 0.681936 255 255 255
-0.273762 0.0378504 0.527458 255 255 255
0.296365 0.0263714 0.633788 255 255 255
-0.212965 0.0605949 0.573213 255 255 255
-0.0302115 0.0923258 0.721818 255 255 255
-0.33908 0.0504101 0.470439 255 255 255
0.260433 0.131281 0.658413 255 255 255
-0.198956 -0.0646028 0.611304 255 255 255
-0.150473 -0.0682895 0.653529 255 255 255
-0.233331 -0.046918 0.577025 255 255 255
0.231299 -0.10405 0.735575 255 255 255
0.0804457 -0.0905646 0.835144 255 255 255
-0.178801 -0.0397789 0.620451 255 255 255
-0.252067 -0.0228626 0.557775 255 255 255
0.0813305 -0.0500233 0.828493 255 255 255
-0.254767 -0.00353619 0.55151 255 255 255
-0.0711143 -0.00629151 0.707756 255 255 255
0.250998 0.0379343 0.684543 255 255 255
0.227876 0.0558213 0.715041 255 255 255
-0.0352215 0.0954539 0.717283 255 255 255
-0.231482 0.115617 0.552709 255 255 255
-0.221439 0.131803 0.551204 255 255 255
-0.276498 -0.102406 0.553118 255 255 255
-0.199009 -0.0784826 0.613349 255 255 255
-0.0894411 -0.10302 0.710927 255 255 255
0.219678 -0.125698 0.806074 255 255 255
0.135106 -0.0922414 0.838497 255 255 255
0.254089 0.0199828 0.682887 255 255 255
-0.0152077 0.0480818 0.743419 255 255 255
0.233731 0.0820193 0.699344 255 255 255
0.302634 0.114886 0.535306 255 255 255
-0.243939 -0.110077 0.58166 255 255 255
0.341423 -0.104889 0.602001 255 255 255
-0.0096873 -0.0837264 0.776277 255 255 255
-0.231818 -0.00520742 0.57559 255 255 255
-0.208312 0.0813948 0.568809 255 255 255
-0.219325 0.140026 0.55212 255 255 255
0.299222 0.14703 0.532331 255 255 255
-0.0282827 -0.0529334 0.752242 255 255 255
0.243424 0.00985372 0.699368 255 255 255
0.243424 0.00985372 0.699368 255 255 255
-0.0780315 0.0212449 0.697848 255 255 255
-0.273508 -0.105651 0.556614 255 255 255
-0.266358 -0.116088 0.564367 255 255 255
-0.244339 -0.12454 0.583613 255 255 255
-0.255235 -0.115232 0.573431 255 255 255
-0.277622 -0.104145 0.55187 255 255 255
-0.230261 -0.119863 0.594508 255 255 255
-0.267621 -0.102643 0.56032 255 255 255
-0.259299 -0.103802 0.567867 255 255 255
-0.177871 -0.120728 0.632059 255 255 255
-0.156751 -0.110757 0.654027 255 255 255
-0.270865 -0.07276 0.551976 255 255 255
0.295465 -0.173452 0.706714 255 255 255
-0.201556 -0.0922126 0.614011 255 255 255
-0.13567 -0.10728 0.672914 255 255 255
-0.252882 -0.0721401 0.566778 255 255 255
0.273124 -0.19867 0.915159 255 255 255
-0.206729 -0.0837819 0.607793 255 255 255
0.267136 -0.194857 0.915201 255 255 255
-0.195276 -0.0842991 0.617421 255 255 255
-0.113343 -0.106615 0.691587 255 255 255
-0.141119 -0.0967934 0.66655 255 255 255
-0.259143 -0.0626978 0.559528 255 255 255
-0.11919 -0.1004 0.685818 255 255 255
-0.215462 -0.0730165 0.597915 255 255 255
-0.208777 -0.072852 0.603883 255 255 255
-0.244196 -0.0598068 0.571552 255 255 255
0.0178258 -0.129644 0.841406 255 255 255
-0.269895 -0.0523814 0.548803 255 255 255
0.0124832 -0.128359 0.847488 255 255 255
-0.0939048 -0.0889769 0.705301 255 255 255
0.224909 -0.141046 0.83672 255 255 255
-0.0809174 -0.0885593 0.716617 255 255 255
-0.137312 -0.0753496 0.66602 255 255 255
-0.216167 -0.0565876 0.593587 255 255 255
0.230164 -0.129214 0.785563 255 255 255
0.186426 -0.137344 0.898147 255 255 255
-0.285607 -0.0374398 0.53273 255 255 255
-0.0686683 -0.0856041 0.726536 255 255 255
0.0680822 -0.116152 0.863533 255 255 255
0.113521 -0.1132 0.834749 255 255 255
-0.199592 -0.0522379 0.607445 255 255 255
0.0914267 -0.10999 0.833513 255 255 255
-0.19438 -0.0502344 0.608274 255 255 255
0.318421 -0.103906 0.628122 255 255 255
0.241145 -0.105122 0.709982 255 255 255
-0.242829 -0.0377542 0.568019 255 255 255
-0.233167 -0.0386852 0.576522 255 255 255
-0.234165 -0.0379208 0.575445 255 255 255
-0.226923 -0.0392224 0.58116 255 255 255
-0.226307 -0.0353852 0.581243 255 255 255
-0.165904 -0.0446721 0.62991 255 255 255
-0.161198 -0.0450726 0.635866 255 255 255
0.280423 -0.091112 0.673644 255 255 255
-0.193804 -0.0371215 0.606668 255 255 255
-0.197554 -0.0360152 0.603959 255 255 255
0.294997 -0.0874729 0.654456 255 255 255
-0.223006 -0.0298644 0.58292 255 255 255
-0.223006 -0.0298644 0.58292 255 255 255
0.0197013 -0.0707221 0.797693 255 255 255
-0.225646 -0.0267969 0.580539 255 255 255
-0.19228 -0.0321895 0.609088 255 255 255
-0.163802 -0.0356041 0.631066 255 255 255
-0.211388 -0.0246701 0.591685 255 255 255
0.326095 -0.0761783 0.620796 255 255 255
0.206115 -0.0751899 0.762124 255 255 255
0.0932824 -0.0689228 0.825383 255 255 255
-0.184969 -0.0276159 0.613473 255 255 255
-0.184967 -0.0275522 0.613309 255 255 255
0.267632 -0.0741231 0.68614 255 255 255
-0.147546 -0.0320961 0.645865 255 255 255
-0.147546 -0.0320961 0.645865 255 255 255
0.0831778 -0.0661887 0.831433 255 255 255
0.210243 -0.0700595 0.759407 255 255 255
-0.258766 -0.0126416 0.54985 255 255 255
-0.207426 -0.0204483 0.594571 255 255 255
0.102265 -0.0629515 0.825891 255 255 255
-0.150565 -0.0267833 0.638153 255 255 255
0.0467872 -0.0559722 0.823595 255 255 255
-0.25894 -0.0105793 0.549538 255 255 255
0.0610013 -0.0531713 0.829439 255 255 255
0.2687 -0.0611291 0.682264 255 255 255
-0.157472 -0.0195721 0.635808 255 255 255
0.23348 -0.0567896 0.724466 255 255 255
-0.0481582 -0.0290265 0.732307 255 255 255
0.235879 -0.0511936 0.720083 255 255 255
0.240498 -0.0494302 0.714763 255 255 255
0.245778 -0.04947 0.706513 255 255 255
-0.0323188 -0.026384 0.745201 255 255 255
0.232924 -0.0467731 0.723626 255 255 255
-0.116178 -0.0163504 0.671552 255 255 255
-0.185333 -0.00728235 0.610866 255 255 255
-0.172766 -0.00775401 0.626417 255 255 255
0.163687 -0.0413679 0.814112 255 255 255
0.24426 -0.0426052 0.708847 255 255 255
-0.206164 0.000407182 0.591818 255 255 255
-0.110036 -0.00943514 0.675382 255 255 255
-0.066749 -0.0134873 0.712626 255 255 255
0.0852723 -0.0266592 0.822469 255 255 255
-0.154164 -0.00240667 0.636011 255 255 255
-0.215019 0.00362124 0.58332 255 255 255
-0.102085 -0.00693857 0.681354 255 255 255
0.236569 -0.0326211 0.716296 255 255 255
0.102831 -0.0234234 0.816279 255 255 255
-0.0759718 -0.00745046 0.705038 255 255 255
0.23093 -0.0301088 0.722462 255 255 255
-0.101177 -0.00397085 0.681457 255 255 255
0.231939 -0.0286188 0.721273 255 255 255
0.258505 -0.0290649 0.687697 255 255 255
0.258801 -0.029112 0.688314 255 255 255
-0.179554 0.00491411 0.616853 255 255 255
0.114974 -0.0180525 0.818005 255 255 255
0.11109 -0.0170102 0.818371 255 255 255
0.29632 -0.0276408 0.64179 255 255 255
0.102921 -0.0141024 0.818112 255 255 255
0.0532136 -0.00954851 0.814822 255 255 255
0.0533166 -0.00958657 0.815104 255 255 255
0.115027 -0.0133114 0.817021 255 255 255
-0.0756275 0.0021149 0.702707 255 255 255
0.233795 -0.0195127 0.716485 255 255 255
0.262095 -0.0190594 0.680933 255 255 255
0.254666 -0.0161497 0.691014 255 255 255
-0.140633 0.0117142 0.644935 255 255 255
0.30041 -0.0169562 0.634104 255 255 255
0.334852 -0.0192968 0.592878 255 255 255
0.271113 -0.0143431 0.669705 255 255 255
0.23365 -0.00911243 0.716059 255 255 255
0.23705 -0.00812102 0.711723 255 255 255
0.224794 -0.00603278 0.725975 255 255 255
0.231664 -0.00549057 0.717439 255 255 255
0.231657 -0.00550059 0.717423 255 255 255
0.245885 -0.00639307 0.699139 255 255 255
0.263479 -0.00782432 0.678121 255 255 255
-0.0194463 0.0132712 0.746785 255 255 255
0.259736 -0.00312556 0.681538 255 255 255
-0.0666102 0.0184516 0.706377 255 255 255
0.23159 -3.53402e-05 0.71647 255 255 255
0.257547 -0.00153271 0.68425 255 255 255
0.230128 0.00168317 0.717631 255 255 255
0.230157 0.00164069 0.717667 255 255 255
0.239161 0.00142174 0.70674 255 255 255
0.0939429 0.0122996 0.80894 255 255 255
0.295421 -0.00292971 0.638598 255 255 255
-0.066368 0.0225131 0.706075 255 255 255
0.260769 0.00280296 0.679212 255 255 255
0.223264 0.0071005 0.724942 255 255 255
-0.270257 0.0342829 0.53131 255 255 255
0.260569 0.006813 0.679384 255 255 255
0.0939038 0.0212547 0.807065 255 255 255
0.248238 0.00985158 0.693595 255 255 255
-0.00876365 0.0270101 0.754654 255 255 255
-0.20132 0.0331222 0.572161 255 255 255
0.235409 0.0123902 0.709331 255 255 255
-0.0109015 0.0287501 0.752096 255 255 255
0.297294 0.00868609 0.633902 255 255 255
-0.216184 0.0364563 0.575913 255 255 255
-0.271222 0.0384975 0.530056 255 255 255
0.149698 0.0247255 0.814132 255 255 255
0.0994035 0.0283242 0.810303 255 255 255
-0.233508 0.0387059 0.561367 255 255 255
-0.144297 0.0365307 0.573735 255 255 255
0.228915 0.0230444 0.722899 255 255 255
0.217723 0.0262344 0.735765 255 255 255
0.0475578 0.0394224 0.805012 255 255 255
-0.138931 0.0404531 0.578129 255 255 255
0.206069 0.0331707 0.742206 255 255 255
0.0995867 0.0434549 0.807025 255 255 255
0.295993 0.0241233 0.633239 255 255 255
0.0953116 0.0445974 0.805837 255 255 255
-0.120918 0.0444229 0.597504 255 255 255
0.29426 0.0277446 0.634997 255 255 255
0.206415 0.0394618 0.740353 255 255 255
0.250039 0.0344241 0.687446 255 255 255
0.258282 0.0335139 0.67692 255 255 255
0.28111 0.0319602 0.660285 255 255 255
0.239262 0.0368936 0.699922 255 255 255
0.270942 0.0356198 0.660874 255 255 255
0.222014 0.0425014 0.723198 255 255 255
0.256992 0.0389162 0.677509 255 255 255
0.295464 0.034031 0.631534 255 255 255
0.235328 0.0446869 0.704666 255 255 255
0.241682 0.0441039 0.6956 255 255 255
0.291887 0.0382012 0.634149 255 255 255
0.291952 0.0382102 0.634221 255 255 255
-0.228974 0.0571697 0.561313 255 255 255
0.0205244 0.0614389 0.770949 255 255 255
0.267379 0.0424999 0.663591 255 255 255
-0.232023 0.0576487 0.558827 255 255 255
-0.221386 0.0586924 0.567217 255 255 255
0.231892 0.0489638 0.702752 255 255 255
0.271971 0.0436074 0.657407 255 255 255
0.272007 0.0436684 0.657482 255 255 255
-0.226398 0.0591034 0.563219 255 255 255
0.264732 0.0450366 0.66595 255 255 255
-0.16956 0.0557007 0.550499 255 255 255
0.266763 0.0519753 0.66266 255 255 255
0.263938 0.0527217 0.665486 255 255 255
0.27528 0.0513024 0.652615 255 255 255
0.275243 0.0512681 0.652582 255 255 255
0.150056 0.0710116 0.804913 255 255 255
0.267699 0.054075 0.661382 255 255 255
-0.118607 0.0635761 0.593677 255 255 255
0.283678 0.0524634 0.641873 255 255 255
-0.174479 0.0625804 0.550137 255 255 255
0.256978 0.0565229 0.673665 255 255 255
0.256885 0.0564829 0.673534 255 255 255
0.264316 0.0556933 0.664888 255 255 255
0.108177 0.0753764 0.799952 255 255 255
0.100005 0.0783601 0.800156 255 255 255
0.112217 0.0793979 0.798806 255 255 255
0.259868 0.0618535 0.669307 255 255 255
0.267966 0.0608538 0.659376 255 255 255
0.0849392 0.0819835 0.80109 255 255 255
-0.249034 0.0692115 0.54186 255 255 255
0.229745 0.0674466 0.705067 255 255 255
0.243064 0.0654132 0.689922 255 255 255
0.260547 0.0633985 0.668412 255 255 255
0.272928 0.0622629 0.653528 255 255 255
0.208499 0.0739406 0.730907 255 255 255
0.262378 0.0657051 0.665923 255 255 255
0.0856772 0.0858387 0.799351 255 255 255
0.0856772 0.0858387 0.799351 255 255 255
0.244021 0.0693074 0.687385 255 255 255
0.241525 0.071502 0.690419 255 255 255
