ply
format ascii 1.0
element vertex 1239
property float x
property float y
property float z
property uchar red
property uchar green
property uchar blue
end_header
0.817114 -0.0566321 2.16462 255 255 255
0.852137 -0.0546169 2.12545 255 255 255
0.866913 -0.0533545 2.10635 255 255 255
0.80939 -0.0513728 2.17156 255 255 255
0.862433 -0.0521025 2.1144 255 255 255
0.879608 -0.0508731 2.09083 255 255 255
0.849823 -0.0493434 2.12591 255 255 255
0.651503 -0.041983 2.35573 255 255 255
0.71924 -0.0426048 2.27631 255 255 255
0.71924 -0.0426048 2.27631 255 255 255
0.780025 -0.0445037 2.19989 255 255 255
0.709944 -0.0421443 2.28767 255 255 255
0.771525 -0.0351056 2.21432 255 255 255
0.812896 -0.0355156 2.16744 255 255 255
0.762487 -0.0320238 2.22236 255 255 255
0.777662 -0.0309324 2.20633 255 255 255
0.797927 -0.0315228 2.1843 255 255 255
0.751833 -0.0279225 2.23658 255 255 255
-0.431122 0.0242526 2.11683 255 255 255
0.723029 -0.0218956 2.27083 255 255 255
0.669636 -0.0181454 2.33267 255 255 255
0.779468 -0.0199941 2.20081 255 255 255
0.754582 -0.0183493 2.23124 255 255 255
0.661604 -0.00937732 2.34649 255 255 255
0.686816 -0.00977134 2.31177 255 255 255
0.803706 -0.012337 2.18233 255 255 255
-0.309034 0.0333146 2.22466 255 255 255
0.663324 -0.00471265 2.34082 255 255 255
0.648916 -0.00172321 2.35639 255 255 255
0.767078 -0.00664548 2.21313 255 255 255
-0.666714 0.0485474 1.9044 255 255 255
0.665752 0.000142416 2.33533 255 255 255
0.699909 -0.000974667 2.29372 255 255 255
0.69989 -0.000986145 2.29368 255 255 255
0.628847 0.00377017 2.37377 255 255 255
0.878691 -0.0058109 2.08227 255 255 255
0.633434 0.007608 2.37297 255 255 255
0.723269 0.00385331 2.26734 255 255 255
0.723306 0.00378819 2.26744 255 255 255
0.683115 0.00904856 2.31157 255 255 255
0.72731 0.00741207 2.26104 255 255 255
0.605406 0.0154811 2.40585 255 255 255
0.724995 0.0133698 2.26226 255 255 255
0.757658 0.0125396 2.22343 255 255 255
0.49907 0.0309281 2.52562 255 255 255
0.654614 0.02245 2.36589 255 255 255
0.794373 0.0169653 2.18038 255 255 255
0.705829 0.0278248 2.28226 255 255 255
0.74141 0.0262376 2.23946 255 255 255
0.688592 0.0328783 2.30208 255 255 255
0.850916 0.0247711 2.13388 255 255 255
0.809899 0.0293754 2.17512 255 255 255
0.850492 0.0322465 2.13296 255 255 255
0.809783 0.0370226 2.17453 255 255 255
0.731357 0.0430973 2.25085 255 255 255
-0.823015 0.0868386 1.76013 255 255 255
0.685686 0.0494582 2.30513 255 255 255
0.805814 0.0423376 2.17127 255 255 255
0.760762 0.0468201 2.21683 255 255 255
0.630028 0.0571038 2.38851 255 255 255
0.650551 0.0583617 2.3604 255 255 255
0.773794 0.0524959 2.19779 255 255 255
0.773825 0.0525136 2.19785 255 255 255
0.795369 0.0519318 2.17382 255 255 255
0.702665 0.0593981 2.27997 255 255 255
0.760085 0.0562217 2.21421 255 255 255
0.725247 0.0660863 2.25282 255 255 255
0.5938 0.0781491 2.40768 255 255 255
-0.405058 0.0956514 1.94354 255 255 255
0.705058 0.0733911 2.2727 255 255 255
0.714986 0.0734784 2.26352 255 255 255
0.730688 0.0743189 2.24545 255 255 255
0.718701 0.0793569 2.25703 255 255 255
0.877326 0.0652337 2.07456 255 255 255
0.59764 0.0901548 2.40111 255 255 255
0.762229 0.0755614 2.20674 255 255 255
0.685802 0.0846843 2.29687 255 255 255
0.851755 0.0731914 2.12425 255 255 255
0.797945 0.0774092 2.1668 255 255 255
-0.303137 0.116548 2.21238 255 255 255
0.707553 0.0870186 2.26797 255 255 255
0.888539 0.0709349 2.05742 255 255 255
-0.815141 0.115328 1.7613 255 255 255
0.788483 0.0824885 2.17497 255 255 255
0.754908 0.0894755 2.21524 255 255 255
0.770437 0.0876421 2.1928 255 255 255
0.593353 0.105933 2.40187 255 255 255
0.621976 0.10517 2.391 255 255 255
0.799671 0.0876825 2.16199 255 255 255
0.717356 0.0957418 2.25753 255 255 255
0.76919 0.0922914 2.19736 255 255 255
0.699809 0.101815 2.2759 255 255 255
0.800554 0.0930173 2.15842 255 255 255
0.70841 0.101903 2.26559 255 255 255
0.77938 0.0954324 2.18505 255 255 255
0.608768 0.117369 2.38593 255 255 255
0.859144 0.0922676 2.08666 255 255 255
0.708247 0.10786 2.26621 255 255 255
0.776847 0.103538 2.18352 255 255 255
0.657684 0.119437 2.3461 255 255 255
0.771822 0.108716 2.19061 255 255 255
0.786883 0.108992 2.16819 255 255 255
0.792444 0.109178 2.1646 255 255 255
0.702496 0.119518 2.27146 255 255 255
0.849722 0.107325 2.09832 255 255 255
0.790148 0.1148 2.16741 255 255 255
0.77676 0.117039 2.18354 255 255 255
0.836635 0.111964 2.11644 255 255 255
0.807195 0.115412 2.14708 255 255 255
-0.30255 0.158131 2.20461 255 255 255
0.770326 0.126138 2.1904 255 255 255
0.704406 0.134208 2.26543 255 255 255
0.780706 0.126087 2.17469 255 255 255
0.871498 0.11575 2.07171 255 255 255
0.716302 0.135863 2.25 255 255 255
0.720775 0.135524 2.24534 255 255 255
0.867129 0.11863 2.07561 255 255 255
0.760074 0.131585 2.20061 255 255 255
0.0901754 0.178949 2.56508 255 255 255
0.636408 0.146444 2.34117 255 255 255
0.688307 0.140697 2.28499 255 255 255
0.874288 0.120188 2.06695 255 255 255
0.843285 0.125699 2.10334 255 255 255
0.872217 0.124582 2.06954 255 255 255
0.8821 0.125578 2.05693 255 255 255
0.893549 0.125277 2.04323 255 255 255
0.832857 0.133652 2.11458 255 255 255
0.878452 0.128306 2.06087 255 255 255
0.782435 0.140054 2.17224 255 255 255
0.759415 0.14399 2.20099 255 255 255
-0.778957 0.161641 1.78295 255 255 255
0.653351 0.163414 2.32313 255 255 255
0.777507 0.149206 2.17278 255 255 255
0.870528 0.137201 2.06912 255 255 255
0.882721 0.135405 2.05369 255 255 255
0.879275 0.137123 2.05777 255 255 255
0.417747 0.193342 2.59939 255 255 255
0.629492 0.167675 2.34982 255 255 255
0.63719 0.166673 2.34125 255 255 255
0.644517 0.166536 2.33392 255 255 255
0.616625 0.174189 2.35889 255 255 255
0.866166 0.14486 2.07309 255 255 255
0.781865 0.157692 2.16607 255 255 255
0.772611 0.159642 2.18116 255 255 255
0.620214 0.178956 2.35886 255 255 255
0.762775 0.162445 2.1898 255 255 255
0.80391 0.15743 2.14234 255 255 255
0.847467 0.151808 2.09398 255 255 255
0.26331 0.21605 2.58066 255 255 255
0.848314 0.158634 2.09081 255 255 255
-0.0644512 0.212528 2.40291 255 255 255
0.626016 0.189029 2.35027 255 255 255
0.766272 0.173189 2.18408 255 255 255
0.810498 0.169232 2.13527 255 255 255
0.863319 0.162236 2.0734 255 255 255
0.690305 0.185593 2.27323 255 255 255
0.805446 0.170183 2.13912 255 255 255
0.79101 0.174038 2.15608 255 255 255
0.752915 0.179566 2.20234 255 255 255
0.745481 0.181065 2.20849 255 255 255
0.848535 0.16872 2.08927 255 255 255
0.185878 0.237048 2.61453 255 255 255
0.601127 0.204355 2.37275 255 255 255
0.618377 0.204111 2.35868 255 255 255
0.725229 0.189354 2.23224 255 255 255
0.840494 0.173265 2.09796 255 255 255
0.713846 0.191068 2.24138 255 255 255
0.855092 0.171959 2.08189 255 255 255
0.672969 0.197606 2.29051 255 255 255
0.768 0.184841 2.18171 255 255 255
0.767967 0.184814 2.18165 255 255 255
0.850567 0.17348 2.08565 255 255 255
0.746408 0.189083 2.20558 255 255 255
0.676703 0.198789 2.28331 255 255 255
0.702187 0.197882 2.25851 255 255 255
0.8085 0.183156 2.13188 255 255 255
0.612848 0.211434 2.36191 255 255 255
0.612848 0.211434 2.36191 255 255 255
0.590509 0.214897 2.38684 255 255 255
0.722413 0.196845 2.23267 255 255 255
0.854638 0.179204 2.08088 255 255 255
0.869959 0.1771 2.0642 255 255 255
0.731657 0.197804 2.22157 255 255 255
0.60953 0.216016 2.36523 255 255 255
0.60953 0.216016 2.36523 255 255 255
0.713506 0.20193 2.24432 255 255 255
0.812403 0.188256 2.12744 255 255 255
0.811821 0.188188 2.12655 255 255 255
0.666688 0.21268 2.29867 255 255 255
0.749302 0.200757 2.19886 255 255 255
-0.793054 0.197964 1.76491 255 255 255
0.608843 0.22178 2.36764 255 255 255
0.861239 0.187673 2.07182 255 255 255
0.869085 0.188469 2.06257 255 255 255
0.697392 0.213622 2.26052 255 255 255
0.697392 0.213622 2.26052 255 255 255
0.616239 0.227423 2.35889 255 255 255
0.606771 0.229775 2.36657 255 255 255
0.838174 0.195559 2.09733 255 255 255
0.654739 0.223571 2.30976 255 255 255
-0.63368 0.213998 1.9006 255 255 255
0.770985 0.209421 2.17618 255 255 255
0.864687 0.195407 2.06621 255 255 255
-0.348328 0.235048 2.14803 255 255 255
0.773162 0.209162 2.16699 255 255 255
0.817246 0.202915 2.12063 255 255 255
0.873545 0.195323 2.05681 255 255 255
0.632223 0.231281 2.33647 255 255 255
0.671753 0.227692 2.28842 255 255 255
0.614365 0.238298 2.35684 255 255 255
0.623484 0.237414 2.34565 255 255 255
0.623484 0.237414 2.34565 255 255 255
0.844327 0.205122 2.08904 255 255 255
0.833387 0.207885 2.10242 255 255 255
0.59226 0.246549 2.38214 255 255 255
0.59226 0.246549 2.38214 255 255 255
0.765752 0.220004 2.17813 255 255 255
-0.264332 0.252886 2.22036 255 255 255
0.617949 0.24673 2.35119 255 255 255
0.821794 0.21485 2.11428 255 255 255
-0.185203 0.259624 2.28672 255 255 255
0.696982 0.235696 2.25438 255 255 255
0.680088 0.23734 2.26024 255 255 255
0.709377 0.233938 2.2418 255 255 255
-0.142023 0.265768 2.32448 255 255 255
0.0502387 0.280075 2.48782 255 255 255
0.754972 0.231591 2.18667 255 255 255
0.809452 0.223808 2.12661 255 255 255
0.726051 0.237356 2.22167 255 255 255
0.655266 0.249379 2.30254 255 255 255
0.718938 0.241599 2.23058 255 255 255
-0.334777 0.259888 2.15487 255 255 255
0.802416 0.230942 2.13329 255 255 255
0.713143 0.247265 2.23976 255 255 255
0.713143 0.247265 2.23976 255 255 255
-0.307125 0.263557 2.17996 255 255 255
0.614119 0.263687 2.35157 255 255 255
0.614119 0.263687 2.35157 255 255 255
0.757499 0.240647 2.18328 255 255 255
0.779953 0.237308 2.15863 255 255 255
-0.324434 0.266019 2.1623 255 255 255
0.76116 0.243446 2.17938 255 255 255
0.906128 0.221347 2.0149 255 255 255
0.597566 0.272943 2.37031 255 255 255
0.794445 0.240286 2.14074 255 255 255
-0.631742 0.244552 1.89696 255 255 255
0.892554 0.227893 2.02952 255 255 255
0.633324 0.271754 2.32708 255 255 255
0.76566 0.250788 2.1723 255 255 255
0.698396 0.263995 2.25157 255 255 255
0.629164 0.275922 2.33265 255 255 255
0.0148125 0.305565 2.45715 255 255 255
0.72492 0.260386 2.21876 255 255 255
0.78914 0.252332 2.14553 255 255 255
0.0550139 0.315222 2.48483 255 255 255
0.785327 0.25993 2.14847 255 255 255
0.927368 0.235048 1.98734 255 255 255
-0.335 0.286083 2.14985 255 255 255
0.158203 0.332751 2.5784 255 255 255
0.209132 0.331482 2.57811 255 255 255
-0.22196 0.297392 2.24798 255 255 255
0.74924 0.271037 2.18851 255 255 255
0.764348 0.273395 2.17126 255 255 255
0.761622 0.280546 2.17039 255 255 255
-0.336456 0.311357 2.14312 255 255 255
-0.221539 0.323675 2.24272 255 255 255
-0.306629 0.315681 2.17012 255 255 255
-0.259912 0.32265 2.20968 255 255 255
-0.277201 0.324955 2.1924 255 255 255
0.735234 0.310572 2.19877 255 255 255
-0.631358 0.296634 1.88787 255 255 255
-0.627361 0.300378 1.89022 255 255 255
-0.282868 0.344917 2.18538 255 255 255
-0.257459 0.349152 2.20623 255 255 255
-0.236422 0.35176 2.2253 255 255 255
0.758554 0.336228 2.16612 255 255 255
0.754639 0.338153 2.17014 255 255 255
0.754639 0.338153 2.17014 255 255 255
-0.633011 0.318411 1.8815 255 255 255
-0.336142 0.363209 2.13277 255 255 255
-0.336407 0.36322 2.1327 255 255 255
-0.30556 0.367291 2.1603 255 255 255
0.505383 0.408566 2.456 255 255 255
0.209874 0.435084 2.55932 255 255 255
-0.229872 0.383417 2.22122 255 255 255
0.552105 0.410278 2.41823 255 255 255
0.558946 0.408595 2.40967 255 255 255
-0.331207 0.385352 2.13344 255 255 255
-0.267503 0.395083 2.1881 255 255 255
-0.235704 0.404264 2.21826 255 255 255
-0.626925 0.352356 1.88106 255 255 255
-0.380767 0.408287 2.1006 255 255 255
-0.380802 0.408296 2.10067 255 255 255
-0.258766 0.426557 2.19154 255 255 255
-0.305174 0.419443 2.15106 255 255 255
-0.275795 0.428234 2.17166 255 255 255
-0.228948 0.435451 2.21153 255 255 255
-0.216326 0.455813 2.21927 255 255 255
0.877949 0.358835 1.80664 255 255 255
0.882337 0.357855 1.80067 255 255 255
-0.339714 0.437553 2.11521 255 255 255
-0.234239 0.455866 2.20538 255 255 255
-0.222256 0.45865 2.21683 255 255 255
-0.281387 0.448599 2.16617 255 255 255
-0.327846 0.442071 2.12658 255 255 255
-0.335354 0.441015 2.1182 255 255 255
0.865949 0.366826 1.82149 255 255 255
-0.251834 0.45801 2.18727 255 255 255
-0.481906 0.418944 1.9918 255 255 255
-0.298818 0.4513 2.14816 255 255 255
0.87338 0.370965 1.8107 255 255 255
0.864688 0.375015 1.82281 255 255 255
0.868573 0.373965 1.81789 255 255 255
-0.394999 0.406096 1.88081 255 255 255
0.868074 0.398345 1.81548 255 255 255
-0.25717 0.492562 2.17773 255 255 255
-0.786233 -0.396326 1.88367 255 255 255
-0.832483 -0.366225 1.84155 255 255 255
-0.674048 -0.37461 1.97916 255 255 255
-0.587619 -0.384157 2.04547 255 255 255
0.181817 -0.587831 2.78436 255 255 255
0.790975 -0.641237 2.94069 255 255 255
-0.65897 -0.338327 1.98238 255 255 255
-0.575842 -0.356329 2.06297 255 255 255
0.704323 -0.586308 2.93735 255 255 255
0.677152 -0.576504 2.94425 255 255 255
-0.809925 -0.260885 1.83902 255 255 255
0.650772 -0.551461 2.9346 255 255 255
-0.413819 -0.348049 2.20673 255 255 255
0.659231 -0.464082 2.52557 255 255 255
0.617059 -0.52944 2.9352 255 255 255
-0.369463 -0.328926 2.24345 255 255 255
-0.308998 -0.331219 2.29746 255 255 255
0.691386 -0.374497 2.28779 255 255 255
0.994608 -0.342467 2.00509 255 255 255
0.799246 -0.363909 2.23464 255 255 255
-0.243992 -0.284432 2.34453 255 255 255
0.871054 -0.322662 2.14496 255 255 255
0.87091 -0.322586 2.1447 255 255 255
-0.36419 -0.25217 2.23893 255 255 255
0.248202 -0.348391 2.68997 255 255 255
-0.267474 -0.268367 2.32137 255 255 255
0.793354 -0.311644 2.23589 255 255 255
-0.893912 -0.139286 1.7437 255 255 255
-0.252632 -0.244134 2.32993 255 255 255
0.782026 -0.292464 2.24773 255 255 255
-0.115717 -0.26443 2.45433 255 255 255
0.797518 -0.287361 2.2346 255 255 255
0.292941 -0.308745 2.67775 255 255 255
0.255412 -0.297272 2.67795 255 255 255
0.78124 -0.277071 2.24354 255 255 255
0.677715 -0.273965 2.36647 255 255 255
-0.61005 -0.153095 1.99005 255 255 255
-0.863584 -0.116123 1.76527 255 255 255
-0.253085 -0.190954 2.3181 255 255 255
0.683636 -0.244513 2.35605 255 255 255
0.694775 -0.234748 2.34042 255 255 255
0.694775 -0.234748 2.34042 255 255 255
0.874483 -0.209213 2.1237 255 255 255
-0.691097 -0.106251 1.91228 255 255 255
0.287709 -0.214683 2.66098 255 255 255
0.168514 -0.205486 2.6936 255 255 255
0.788338 -0.197191 2.22348 255 255 255
0.73758 -0.194042 2.28226 255 255 255
0.705429 -0.191314 2.31898 255 255 255
0.747625 -0.179462 2.2673 255 255 255
0.787502 -0.176346 2.22012 255 255 255
0.705043 -0.17794 2.31684 255 255 255
0.737837 -0.174469 2.27861 255 255 255
0.782478 -0.171512 2.22472 255 255 255
0.29566 -0.164044 2.64999 255 255 255
0.705907 -0.162951 2.3147 255 255 255
0.772294 -0.16052 2.2317 255 255 255
-0.427665 -0.0832865 2.14177 255 255 255
-0.427644 -0.0835373 2.14197 255 255 255
0.242049 -0.133503 2.63376 255 255 255
0.242101 -0.133549 2.63397 255 255 255
0.693017 -0.138862 2.32301 255 255 255
0.749883 -0.134409 2.25785 255 255 255
0.749896 -0.134402 2.25794 255 255 255
-0.652829 -0.0432413 1.93328 255 255 255
0.788335 -0.111592 2.20892 255 255 255
0.750052 -0.108473 2.25246 255 255 255
0.750052 -0.108473 2.25246 255 255 255
0.706969 -0.103787 2.30206 255 255 255
-0.353917 -0.0508515 2.19918 255 255 255
0.788645 -0.0988303 2.20556 255 255 255
0.788636 -0.0989731 2.20557 255 255 255
0.67215 -0.0969415 2.34157 255 255 255
0.765411 -0.0971807 2.23377 255 255 255
0.765411 -0.0971807 2.23377 255 255 255
0.703833 -0.0907215 2.3041 255 255 255
0.703825 -0.0907007 2.30406 255 255 255
0.772762 -0.0886127 2.22139 255 255 255
0.797193 -0.0849292 2.1912 255 255 255
0.797167 -0.0849672 2.19114 255 255 255
0.670874 -0.0784982 2.34309 255 255 255
0.787195 -0.0769787 2.20348 255 255 255
1.00067 -0.0798465 1.95452 255 255 255
0.953195 -0.0782021 2.00758 255 255 255
0.795216 -0.0712514 2.19396 255 255 255
0.998557 -0.0742286 1.9583 255 255 255
0.806122 -0.0687795 2.17866 255 255 255
0.815779 -0.0664394 2.16708 255 255 255
0.875721 -0.0677556 2.09508 255 255 255
0.664526 -0.0614243 2.34774 255 255 255
0.693991 -0.0624534 2.31202 255 255 255
0.956588 -0.0664861 2.00295 255 255 255
0.882271 -0.0625983 2.0879 255 255 255
0.758507 -0.0579298 2.23236 255 255 255
0.843506 -0.0601738 2.13695 255 255 255
0.876828 -0.0609608 2.09534 255 255 255
0.808097 -0.0567515 2.17562 255 255 255
0.774645 -0.0530826 2.21363 255 255 255
0.667175 -0.0472899 2.34155 255 255 255
0.667175 -0.0472899 2.34155 255 255 255
0.767913 -0.0502676 2.21683 255 255 255
0.789096 -0.0504211 2.19271 255 255 255
0.741525 -0.0458239 2.25222 255 255 255
0.825391 -0.0483035 2.15704 255 255 255
0.870736 -0.0480203 2.10235 255 255 255
0.753524 -0.0418391 2.23581 255 255 255
-0.57308 0.0170022 2.01161 255 255 255
0.801106 -0.0413055 2.1817 255 255 255
0.666317 -0.0311585 2.33864 255 255 255
0.666317 -0.0311585 2.33864 255 255 255
0.716842 -0.0332936 2.27863 255 255 255
0.819374 -0.0369217 2.15922 255 255 255
0.729533 -0.0318143 2.26254 255 255 255
0.656828 -0.0271818 2.34983 255 255 255
0.747065 -0.0297718 2.24165 255 255 255
0.787093 -0.030169 2.19557 255 255 255
0.702067 -0.0213204 2.29503 255 255 255
0.648967 -0.0182909 2.35458 255 255 255
0.664715 -0.0156343 2.33646 255 255 255
0.664715 -0.0156343 2.33646 255 255 255
-0.551112 0.036624 2.02579 255 255 255
-0.562268 0.0392909 2.01515 255 255 255
0.797206 -0.00769031 2.18178 255 255 255
0.680163 0.00123816 2.315 255 255 255
0.73015 0.00287128 2.25586 255 255 255
0.773706 0.0019435 2.20302 255 255 255
0.769268 0.00727708 2.20817 255 255 255
0.777091 0.00820768 2.19648 255 255 255
0.704658 0.0144171 2.28529 255 255 255
0.823539 0.0109441 2.16523 255 255 255
-0.810515 0.0703633 1.77487 255 255 255
0.763316 0.0206833 2.2157 255 255 255
0.763316 0.0206833 2.2157 255 255 255
0.730905 0.0232818 2.25187 255 255 255
0.787225 0.0298026 2.18463 255 255 255
0.77401 0.0332637 2.19788 255 255 255
0.69388 0.0393054 2.28988 255 255 255
0.704957 0.0392836 2.28127 255 255 255
0.704931 0.0394255 2.28119 255 255 255
0.647983 0.0459398 2.36025 255 255 255
0.628756 0.0499066 2.39219 255 255 255
0.615107 0.056506 2.40253 255 255 255
0.693059 0.052147 2.29233 255 255 255
0.799444 0.0455365 2.17189 255 255 255
0.744823 0.0509631 2.23377 255 255 255
-0.776154 0.0910364 1.80099 255 255 255
0.882993 0.0443943 2.07007 255 255 255
-0.767262 0.0956348 1.80767 255 255 255
0.855425 0.0541067 2.12423 255 255 255
0.794611 0.0592158 2.17228 255 255 255
0.877685 0.0532531 2.07685 255 255 255
0.767963 0.0621375 2.20145 255 255 255
0.766691 0.0701754 2.20244 255 255 255
0.724704 0.0820542 2.25141 255 255 255
0.648969 0.0896969 2.35143 255 255 255
0.747973 0.0820345 2.22276 255 255 255
0.774129 0.0796737 2.19309 255 255 255
0.956477 0.0658477 1.98034 255 255 255
0.656837 0.0950839 2.35192 255 255 255
0.830003 0.0798227 2.14744 255 255 255
0.727742 0.0901278 2.24464 255 255 255
0.76291 0.0944755 2.20235 255 255 255
0.680719 0.106776 2.30074 255 255 255
0.73177 0.103219 2.23663 255 255 255
0.762944 0.103511 2.19973 255 255 255
0.847174 0.0966891 2.10127 255 255 255
0.670919 0.117332 2.32992 255 255 255
0.884907 0.0951738 2.0577 255 255 255
0.884907 0.0951738 2.0577 255 255 255
-0.345334 0.142921 2.17096 255 255 255
0.7187 0.11557 2.25149 255 255 255
0.845237 0.102792 2.10316 255 255 255
0.727371 0.115627 2.2408 255 255 255
0.652901 0.124581 2.34286 255 255 255
0.690758 0.120873 2.27762 255 255 255
0.754372 0.115882 2.20988 255 255 255
0.784921 0.116258 2.17303 255 255 255
0.703839 0.126106 2.26741 255 255 255
0.750621 0.121565 2.21285 255 255 255
0.874012 0.111696 2.06898 255 255 255
0.874012 0.111696 2.06898 255 255 255
0.828873 0.118862 2.11978 255 255 255
0.743485 0.135259 2.21762 255 255 255
0.724406 0.13934 2.24177 255 255 255
0.885414 0.121413 2.05372 255 255 255
0.789886 0.135999 2.16149 255 255 255
0.808705 0.135054 2.13993 255 255 255
-0.761901 0.158305 1.79982 255 255 255
0.716514 0.14955 2.24738 255 255 255
0.656537 0.157226 2.31907 255 255 255
0.662786 0.157386 2.3129 255 255 255
0.76394 0.149273 2.19121 255 255 255
0.763951 0.149239 2.19125 255 255 255
0.667177 0.163662 2.30507 255 255 255
0.667177 0.163662 2.30507 255 255 255
0.781997 0.149419 2.1677 255 255 255
0.818605 0.14667 2.1276 255 255 255
0.831777 0.144648 2.11249 255 255 255
0.831777 0.144648 2.11249 255 255 255
-0.379358 0.166507 1.94803 255 255 255
0.796514 0.150229 2.15164 255 255 255
0.787875 0.154977 2.16377 255 255 255
0.715284 0.168868 2.24512 255 255 255
-0.819643 0.170138 1.74671 255 255 255
0.611176 0.184022 2.36837 255 255 255
0.882251 0.151427 2.05235 255 255 255
0.882251 0.151427 2.05235 255 255 255
0.796228 0.165338 2.14966 255 255 255
0.614475 0.191066 2.36223 255 255 255
0.775824 0.171446 2.17406 255 255 255
0.269805 0.221956 2.57908 255 255 255
0.123162 0.226024 2.56792 255 255 255
0.732028 0.185002 2.22299 255 255 255
0.765159 0.180231 2.18631 255 255 255
0.221628 0.231864 2.57735 255 255 255
0.669278 0.19472 2.30077 255 255 255
0.794431 0.180644 2.15004 255 255 255
0.790248 0.181682 2.15666 255 255 255
0.790248 0.181682 2.15666 255 255 255
0.827538 0.176222 2.11388 255 255 255
0.648129 0.201392 2.32053 255 255 255
0.775317 0.187236 2.17278 255 255 255
-0.843026 0.187715 1.72284 255 255 255
0.864852 0.176865 2.06778 255 255 255
0.66405 0.207111 2.30296 255 255 255
0.66405 0.207111 2.30296 255 255 255
0.623083 0.213472 2.35325 255 255 255
0.844716 0.187067 2.09072 255 255 255
0.877288 0.182701 2.05444 255 255 255
-0.70161 0.203392 1.84549 255 255 255
0.734443 0.203741 2.21689 255 255 255
0.820636 0.19195 2.11902 255 255 255
0.227315 0.257317 2.56711 255 255 255
0.706913 0.212658 2.24893 255 255 255
0.747121 0.206969 2.20151 255 255 255
0.758265 0.205755 2.19068 255 255 255
0.847619 0.193149 2.08722 255 255 255
0.702439 0.215474 2.25485 255 255 255
0.766546 0.206888 2.18032 255 255 255
0.766799 0.20707 2.1808 255 255 255
0.643297 0.225808 2.32414 255 255 255
0.662228 0.223375 2.30327 255 255 255
0.760368 0.208716 2.18429 255 255 255
0.786933 0.204029 2.1513 255 255 255
0.811409 0.202435 2.13022 255 255 255
0.694029 0.222482 2.26342 255 255 255
0.8305 0.203498 2.10645 255 255 255
0.902062 0.193328 2.02334 255 255 255
0.724156 0.219836 2.22372 255 255 255
0.76898 0.215644 2.17368 255 255 255
0.648465 0.236937 2.31456 255 255 255
-0.259563 0.248789 2.22324 255 255 255
0.653208 0.237195 2.30954 255 255 255
0.752231 0.221443 2.19345 255 255 255
0.815446 0.212499 2.12035 255 255 255
0.863595 0.20596 2.06671 255 255 255
0.771874 0.221421 2.16904 255 255 255
0.5838 0.251613 2.38303 255 255 255
0.595992 0.249364 2.3758 255 255 255
0.595992 0.249364 2.3758 255 255 255
0.266418 0.279872 2.55302 255 255 255
0.658562 0.244432 2.29778 255 255 255
0.666011 0.247268 2.29401 255 255 255
0.288817 0.286553 2.5498 255 255 255
-0.0736042 0.276484 2.38321 255 255 255
0.257856 0.28772 2.55229 255 255 255
0.597828 0.261264 2.37541 255 255 255
0.702258 0.24484 2.25023 255 255 255
0.645147 0.257495 2.3108 255 255 255
0.726637 0.247985 2.22206 255 255 255
0.936426 0.213934 1.97954 255 255 255
0.666813 0.258139 2.28875 255 255 255
0.713583 0.251443 2.23106 255 255 255
0.646393 0.271086 2.31216 255 255 255
0.646393 0.271086 2.31216 255 255 255
0.25584 0.309693 2.54864 255 255 255
0.711182 0.261109 2.23596 255 255 255
0.717395 0.262768 2.22941 255 255 255
-0.152074 0.295411 2.31818 255 255 255
-0.867209 0.232066 1.69182 255 255 255
0.768112 0.257491 2.16799 255 255 255
0.899868 0.238448 2.01834 255 255 255
-0.888365 0.233292 1.67333 255 255 255
-0.820689 0.238887 1.73083 255 255 255
-0.882156 0.233763 1.67873 255 255 255
0.248477 0.324964 2.54574 255 255 255
-0.795369 0.247118 1.75142 255 255 255
-0.838269 0.244147 1.71511 255 255 255
0.913016 0.245512 2.00141 255 255 255
0.732214 0.279471 2.20673 255 255 255
-0.626324 0.266487 1.89679 255 255 255
0.920258 0.248412 1.99198 255 255 255
0.920342 0.248447 1.99195 255 255 255
0.776364 0.274713 2.1558 255 255 255
-0.34011 0.30564 2.14181 255 255 255
0.747608 0.29476 2.18585 255 255 255
-0.843331 0.261338 1.70593 255 255 255
-0.81469 0.27336 1.73036 255 255 255
0.72484 0.318282 2.20797 255 255 255
0.72484 0.318282 2.20797 255 255 255
0.761988 0.318549 2.16383 255 255 255
0.750142 0.325188 2.17975 255 255 255
0.753747 0.329362 2.1755 255 255 255
0.72848 0.33829 2.19906 255 255 255
-0.865885 0.284257 1.68117 255 255 255
-0.73146 0.305997 1.81456 255 255 255
-0.780481 0.297101 1.75464 255 255 255
-0.887776 0.285562 1.66378 255 255 255
-0.625895 0.31899 1.88713 255 255 255
0.726216 0.366337 2.19921 255 255 255
0.510375 0.414526 2.4493 255 255 255
-0.789948 0.321 1.74189 255 255 255
-0.62337 0.349572 1.88388 255 255 255
-0.62564 0.370684 1.87805 255 255 255
-0.865499 0.336056 1.67149 255 255 255
-0.223744 0.441458 2.21637 255 255 255
0.861166 0.357156 1.83015 255 255 255
-0.212284 0.45077 2.22136 255 255 255
0.873201 0.356577 1.8131 255 255 255
-0.343626 0.432178 2.11352 255 255 255
-0.343626 0.432178 2.11352 255 255 255
0.8856 0.357015 1.79683 255 255 255
0.871864 0.362455 1.81402 255 255 255
0.889874 0.357533 1.79134 255 255 255
-0.489859 0.417491 1.98666 255 255 255
0.869584 0.368271 1.81704 255 255 255
-0.796136 0.372156 1.726 255 255 255
0.871994 0.376361 1.81273 255 255 255
-0.817061 0.373918 1.70738 255 255 255
-0.241636 0.489668 2.18887 255 255 255
-0.247098 0.494314 2.18343 255 255 255
-0.260027 0.506252 2.16212 255 255 255
-0.371699 0.431966 1.77259 255 255 255
-0.371699 0.431966 1.77259 255 255 255
-0.866855 -0.340957 1.80331 255 255 255
0.196147 -0.592755 2.7697 255 255 255
-0.58432 -0.378875 2.05662 255 255 255
-0.673323 -0.297956 1.96408 255 255 255
-0.497415 -0.331119 2.12878 255 255 255
-0.430993 -0.329684 2.18625 255 255 255
-0.309274 -0.351333 2.27153 255 255 255
-0.309406 -0.305533 2.29233 255 255 255
-0.655935 -0.225449 1.96478 255 255 255
0.727398 -0.345513 2.30515 255 255 255
-0.896008 -0.134977 1.74092 255 255 255
-0.896008 -0.134977 1.74092 255 255 255
1.03605 -0.234718 1.93712 255 255 255
-0.324713 -0.15448 2.24984 255 255 255
0.189548 -0.191762 2.68833 255 255 255
0.712342 -0.183549 2.31192 255 255 255
0.739059 -0.182843 2.27863 255 255 255
0.72569 -0.156961 2.28653 255 255 255
0.710162 -0.136604 2.30435 255 255 255
0.789744 -0.133503 2.21187 255 255 255
0.689818 -0.130462 2.32781 255 255 255
0.780038 -0.130436 2.22147 255 255 255
0.738808 -0.126553 2.2683 255 255 255
-0.865952 -0.0232829 1.74493 255 255 255
0.741768 -0.106258 2.26314 255 255 255
0.758117 -0.0983076 2.24066 255 255 255
0.758117 -0.0983076 2.24066 255 255 255
-0.88322 -0.00360103 1.72617 255 255 255
0.69836 -0.08499 2.30872 255 255 255
0.727715 -0.0846872 2.27486 255 255 255
0.660011 -0.0661697 2.3541 255 255 255
0.767945 -0.0641138 2.21964 255 255 255
-0.305558 -0.0166419 2.23787 255 255 255
0.819435 -0.0572154 2.16009 255 255 255
0.210908 -0.0384329 2.63812 255 255 255
0.716696 -0.0504948 2.28017 255 255 255
0.682562 -0.0423691 2.32202 255 255 255
0.657079 -0.036388 2.3515 255 255 255
-0.580489 0.0188572 2.00352 255 255 255
-0.819468 0.0357058 1.77417 255 255 255
-0.592762 0.0304716 1.99024 255 255 255
0.680567 -0.0104987 2.31593 255 255 255
-0.819043 0.0475142 1.77193 255 255 255
0.6939 -0.000231338 2.30138 255 255 255
0.694497 0.0168879 2.29719 255 255 255
0.786979 0.0121928 2.18862 255 255 255
0.69991 0.0211419 2.28775 255 255 255
0.699834 0.0211634 2.28757 255 255 255
0.794528 0.0302909 2.17823 255 255 255
0.710135 0.0551977 2.27186 255 255 255
0.479969 0.0768877 2.57187 255 255 255
0.729836 0.0611232 2.2472 255 255 255
0.30002 0.114426 2.5968 255 255 255
0.869894 0.0917047 2.0752 255 255 255
0.747764 0.106538 2.2202 255 255 255
0.827556 0.101144 2.12469 255 255 255
0.816764 0.104882 2.13574 255 255 255
0.801617 0.106825 2.15606 255 255 255
0.214051 0.159916 2.59748 255 255 255
0.821085 0.113169 2.13238 255 255 255
0.878903 0.105977 2.06206 255 255 255
0.850303 0.115549 2.09854 255 255 255
0.15246 0.17566 2.5992 255 255 255
0.666057 0.143511 2.3078 255 255 255
0.837504 0.129076 2.11045 255 255 255
0.641087 0.160581 2.33733 255 255 255
0.835463 0.138859 2.10851 255 255 255
0.813593 0.143957 2.13398 255 255 255
0.844056 0.142477 2.09845 255 255 255
0.844056 0.142477 2.09845 255 255 255
0.850053 0.14565 2.09193 255 255 255
0.886771 0.142716 2.04852 255 255 255
0.756786 0.159416 2.20093 255 255 255
0.895736 0.14271 2.03866 255 255 255
0.813059 0.157202 2.1321 255 255 255
0.813089 0.157242 2.13218 255 255 255
0.754418 0.168799 2.19815 255 255 255
0.770305 0.167206 2.18003 255 255 255
0.702577 0.187537 2.25536 255 255 255
-0.69303 0.190423 1.85536 255 255 255
0.867853 0.168843 2.06872 255 255 255
0.76091 0.188678 2.18976 255 255 255
0.845685 0.179851 2.08928 255 255 255
0.690007 0.204608 2.26973 255 255 255
0.860683 0.180837 2.0742 255 255 255
0.83646 0.189409 2.10268 255 255 255
0.724736 0.210947 2.22594 255 255 255
0.605153 0.239674 2.36407 255 255 255
0.70261 0.229136 2.25272 255 255 255
0.694358 0.230694 2.2583 255 255 255
0.692883 0.238851 2.26205 255 255 255
0.785536 0.223169 2.15397 255 255 255
0.802447 0.222336 2.13323 255 255 255
0.227027 0.286664 2.56215 255 255 255
0.768172 0.229928 2.17339 255 255 255
0.760105 0.233787 2.17785 255 255 255
0.731233 0.241238 2.21455 255 255 255
0.692748 0.25699 2.25016 255 255 255
0.722092 0.25574 2.22797 255 255 255
0.760204 0.252101 2.17994 255 255 255
0.653288 0.271595 2.3035 255 255 255
0.653288 0.271595 2.3035 255 255 255
0.795386 0.248684 2.14055 255 255 255
0.779675 0.251898 2.15574 255 255 255
0.749126 0.264086 2.18982 255 255 255
0.7767 0.264496 2.1554 255 255 255
0.727685 0.279485 2.21327 255 255 255
0.728705 0.291372 2.20847 255 255 255
0.728705 0.291372 2.20847 255 255 255
-0.883823 0.255128 1.67335 255 255 255
-0.243611 0.344565 2.22417 255 255 255
-0.860242 0.284729 1.688 255 255 255
-0.814068 0.292031 1.72836 255 255 255
0.734211 0.355933 2.18614 255 255 255
0.763551 0.355374 2.15796 255 255 255
-0.859561 0.336587 1.67816 255 255 255
0.880244 0.352759 1.80453 255 255 255
0.876167 0.382857 1.8049 255 255 255
-0.399921 0.409897 1.87814 255 255 255
-0.819351 0.41003 1.69823 255 255 255
-0.679868 -0.38495 1.97451 255 255 255
-0.4657 -0.295171 2.14977 255 255 255
-0.772085 -0.197117 1.8592 255 255 255
0.151579 -0.361987 2.75698 255 255 255
-0.885108 -0.161817 1.754 255 255 255
-0.277268 -0.26855 2.31154 255 255 255
-0.761148 -0.177934 1.8634 255 255 255
-0.885375 -0.147755 1.75228 255 255 255
-0.31587 -0.218732 2.26991 255 255 255
0.284943 -0.231164 2.65481 255 255 255
-0.314824 -0.139687 2.25467 255 255 255
0.723555 -0.192472 2.29713 255 255 255
-0.562052 -0.0948596 2.02181 255 255 255
0.740729 -0.164452 2.27353 255 255 255
0.76756 -0.147138 2.23729 255 255 255
0.781232 -0.145567 2.2222 255 255 255
0.653126 -0.133661 2.37355 255 255 255
-0.724537 -0.0324038 1.88543 255 255 255
0.803127 -0.109701 2.18859 255 255 255
0.774005 -0.106965 2.22416 255 255 255
-0.81203 -0.0154797 1.78883 255 255 255
0.787598 -0.0647526 2.19927 255 255 255
0.726156 -0.0418088 2.26892 255 255 255
-0.823927 0.0275684 1.77149 255 255 255
0.792042 -0.0415621 2.19153 255 255 255
0.769385 -0.0332853 2.21613 255 255 255
0.788863 -0.00490046 2.19054 255 255 255
0.879654 -0.00905591 2.08276 255 255 255
0.824468 0.00324471 2.16443 255 255 255
0.744397 0.0130453 2.23989 255 255 255
0.235911 0.0453644 2.59971 255 255 255
0.657073 0.0429693 2.35673 255 255 255
0.62371 0.0508809 2.4003 255 255 255
0.768822 0.0409047 2.20534 255 255 255
0.770897 0.0825819 2.1921 255 255 255
0.737904 0.10468 2.22912 255 255 255
0.737904 0.10468 2.22912 255 255 255
0.879041 0.0902213 2.06456 255 255 255
0.807017 0.0983505 2.14829 255 255 255
0.71172 0.110253 2.26109 255 255 255
0.780623 0.108755 2.17762 255 255 255
0.886192 0.111697 2.04977 255 255 255
0.809014 0.125997 2.14434 255 255 255
0.825623 0.12876 2.12162 255 255 255
0.616119 0.154667 2.36674 255 255 255
0.764139 0.138486 2.1944 255 255 255
0.737021 0.142189 2.22079 255 255 255
-0.711001 0.159006 1.84413 255 255 255
0.775751 0.139221 2.18129 255 255 255
0.748439 0.144993 2.20959 255 255 255
0.729737 0.150646 2.23111 255 255 255
-0.862325 0.15887 1.71052 255 255 255
0.722367 0.15712 2.23669 255 255 255
0.802667 0.148733 2.14613 255 255 255
-0.816454 0.166026 1.75014 255 255 255
0.83937 0.152236 2.10089 255 255 255
0.837774 0.162951 2.10343 255 255 255
0.728033 0.17833 2.22622 255 255 255
0.728033 0.17833 2.22622 255 255 255
0.661404 0.189302 2.30612 255 255 255
0.782029 0.173207 2.16749 255 255 255
0.104258 0.235915 2.54592 255 255 255
0.696717 0.19742 2.26549 255 255 255
0.801357 0.185303 2.14154 255 255 255
-0.0293992 0.236779 2.41969 255 255 255
0.814665 0.194373 2.1274 255 255 255
0.759084 0.218437 2.18845 255 255 255
0.823776 0.211247 2.11183 255 255 255
0.779051 0.221207 2.1613 255 255 255
0.899164 0.210463 2.02442 255 255 255
0.605798 0.258159 2.35378 255 255 255
0.791382 0.231666 2.14521 255 255 255
0.748324 0.245341 2.19187 255 255 255
0.0111105 0.298582 2.45518 255 255 255
0.662019 0.266106 2.29513 255 255 255
0.615507 0.27571 2.34968 255 255 255
0.23827 0.313047 2.54799 255 255 255
0.756617 0.263272 2.18103 255 255 255
0.921525 0.237438 1.99315 255 255 255
0.283402 -0.581599 2.7095 255 255 255
0.0663144 -0.274187 2.61636 255 255 255
-0.329182 -0.205234 2.25516 255 255 255
-0.0609985 -0.228211 2.49491 255 255 255
-0.644324 -0.116896 1.95289 255 255 255
0.277242 -0.20657 2.6629 255 255 255
0.857338 -0.183093 2.13876 255 255 255
0.835066 -0.177191 2.16618 255 255 255
0.820711 -0.174786 2.17868 255 255 255
0.732036 -0.166787 2.28212 255 255 255
0.732036 -0.166787 2.28212 255 255 255
0.670285 -0.137035 2.3518 255 255 255
0.797369 -0.0988232 2.1946 255 255 255
0.804927 -0.0837913 2.18147 255 255 255
0.83936 -0.0597624 2.14007 255 255 255
0.797809 -0.0515866 2.18691 255 255 255
0.135251 0.00308311 2.6236 255 255 255
0.637293 -0.0106259 2.37019 255 255 255
0.873472 0.0467558 2.08715 255 255 255
0.889485 0.0756503 2.05539 255 255 255
0.854761 0.0829243 2.0976 255 255 255
0.854761 0.0829243 2.0976 255 255 255
0.856011 0.0958953 2.09304 255 255 255
0.667904 0.127285 2.3016 255 255 255
0.631443 0.138028 2.35382 255 255 255
0.631443 0.138028 2.35382 255 255 255
0.849539 0.127068 2.09559 255 255 255
0.709698 0.165413 2.2552 255 255 255
0.732657 0.162635 2.22094 255 255 255
0.824032 0.160093 2.12075 255 255 255
0.824032 0.160093 2.12075 255 255 255
0.819857 0.181963 2.11982 255 255 255
0.87805 0.193135 2.05156 255 255 255
0.88016 0.209214 2.04572 255 255 255
0.670258 0.248654 2.28423 255 255 255
-0.0863199 0.284507 2.3744 255 255 255
0.911759 0.233927 2.00527 255 255 255
0.906278 0.244538 2.00929 255 255 255
0.133939 0.342973 2.55052 255 255 255
0.911789 0.26093 2.00408 255 255 255
0.755075 0.319051 2.17247 255 255 255
-0.378011 -0.093719 2.18864 255 255 255
0.77986 -0.125295 2.22174 255 255 255
-0.815622 -0.0140289 1.7864 255 255 255
0.759873 -0.0840849 2.2429 255 255 255
-0.883928 0.0544725 1.71295 255 255 255
0.800246 0.00346568 2.18124 255 255 255
-0.277389 0.108047 2.23804 255 255 255
0.965663 0.0723078 1.96878 255 255 255
0.876257 0.0946762 2.06665 255 255 255
0.65142 0.132058 2.33507 255 255 255
0.772096 0.153968 2.17666 255 255 255
0.669136 0.17332 2.30025 255 255 255
0.638316 0.211525 2.33153 255 255 255
-0.34053 0.229911 2.15591 255 255 255
0.795024 0.207871 2.14515 255 255 255
-0.0402267 0.276837 2.40751 255 255 255
0.742008 0.235108 2.20329 255 255 255
0.893306 0.223239 2.02816 255 255 255
0.119354 0.312281 2.5424 255 255 255
0.937528 0.234685 1.9745 255 255 255
0.729862 0.304885 2.20402 255 255 255
-0.743301 0.337423 1.79817 255 255 255
-0.743301 0.337423 1.79817 255 255 255
0.2275 -0.607456 2.7451 255 255 255
0.37088 -0.0981868 2.66349 255 255 255
0.37088 -0.0981868 2.66349 255 255 255
-0.258678 -0.0421524 2.28243 255 255 255
0.747812 -0.0397584 2.24485 255 255 255
0.868216 0.0785042 2.08355 255 255 255
0.696379 0.108719 2.28091 255 255 255
0.61004 0.14415 2.37889 255 255 255
0.8848 0.125034 2.05406 255 255 255
0.682352 0.229867 2.2793 255 255 255
0.598907 0.251396 2.37998 255 255 255
0.736472 0.257326 2.20053 255 255 255
0.904127 0.335427 1.7777 255 255 255
-0.812818 -0.36195 1.8537 255 255 255
-0.0733884 -0.282542 2.49502 255 255 255
0.798906 -0.186952 2.21707 255 255 255
0.370798 -0.182609 2.67984 255 255 255
-0.164292 -0.0892602 2.37484 255 255 255
0.231527 -0.0579686 2.63687 255 255 255
-0.259583 0.0201307 2.2715 255 255 255
0.271019 0.166295 2.57341 255 255 255
0.635628 0.250313 2.32612 255 255 255
0.713458 -0.0802322 2.29143 255 255 255
0.611906 0.0192256 2.38909 255 255 255
0.442212 0.0634042 2.59684 255 255 255
0.785651 0.185829 2.162 255 255 255
0.712104 0.00743253 2.27789 255 255 255
0.712104 0.00743253 2.27789 255 255 255
0.876888 0.165901 2.05854 255 255 255
0.179606 -0.294696 2.69527 255 255 255
-0.221287 -0.0962069 2.32248 255 255 255
0.776282 -0.0851614 2.21646 255 255 255
0.314832 0.140482 2.60297 255 255 255
0.921315 0.00759321 2.03569 255 255 255
0.315656 -0.611926 2.7258 255 255 255
-0.464442 -0.340134 2.15926 255 255 255
-0.391259 -0.343115 2.22453 255 255 255
-0.322147 -0.252757 2.26977 255 255 255
-0.465804 -0.210519 2.13438 255 255 255
-0.45516 -0.192633 2.13974 255 255 255
0.704455 -0.347623 2.30784 255 255 255
0.234868 -0.272871 2.66174 255 255 255
0.788767 -0.299404 2.24153 255 255 255
0.792868 -0.296154 2.2372 255 255 255
-0.306788 -0.137822 2.26203 255 255 255
-0.265083 -0.136812 2.29722 255 255 255
-0.479038 -0.0799239 2.09513 255 255 255
-0.401067 -0.0737934 2.16391 255 255 255
-0.401141 -0.0737901 2.16363 255 255 255
0.790168 -0.202729 2.22262 255 255 255
-0.667479 -0.0189995 1.91731 255 255 255
0.714049 -0.15453 2.30582 255 255 255
0.760222 -0.138182 2.24614 255 255 255
0.685886 -0.131607 2.3303 255 255 255
0.746229 -0.116028 2.25926 255 255 255
0.747051 -0.0723953 2.25182 255 255 255
0.824493 -0.0678747 2.15771 255 255 255
0.691632 -0.0480964 2.31502 255 255 255
0.894561 -0.0632993 2.07296 255 255 255
0.883526 -0.0502842 2.08472 255 255 255
0.755893 -0.0272972 2.23102 255 255 255
0.697776 -0.0187906 2.29918 255 255 255
0.729092 -0.0225345 2.2637 255 255 255
0.77963 -0.0253804 2.20203 255 255 255
0.772563 -0.0195361 2.21132 255 255 255
0.875728 -0.0304409 2.09289 255 255 255
0.766453 -0.0138178 2.21612 255 255 255
0.753977 0.041278 2.2222 255 255 255
0.875752 0.0414191 2.09466 255 255 255
0.776702 0.0582452 2.19345 255 255 255
0.77561 0.074095 2.1903 255 255 255
0.732619 0.0835689 2.2414 255 255 255
0.758807 0.081094 2.20962 255 255 255
0.742346 0.0888304 2.22881 255 255 255
0.731737 0.0951581 2.24136 255 255 255
0.79585 0.0897889 2.16614 255 255 255
0.754471 0.0977244 2.21108 255 255 255
0.706192 0.113166 2.26597 255 255 255
0.865332 0.0965502 2.08036 255 255 255
0.864917 0.096499 2.07985 255 255 255
0.836345 0.10584 2.11476 255 255 255
0.864724 0.102698 2.08168 255 255 255
0.730584 0.130976 2.23528 255 255 255
0.416826 0.182786 2.60118 255 255 255
-0.309963 0.19295 2.19118 255 255 255
-0.0663915 0.197887 2.40455 255 255 255
0.789139 0.144687 2.16319 255 255 255
0.839695 0.140548 2.10415 255 255 255
0.807622 0.159387 2.13932 255 255 255
0.711018 0.179541 2.24928 255 255 255
0.789723 0.165675 2.15675 255 255 255
0.857113 0.157883 2.08182 255 255 255
0.851899 0.165227 2.08648 255 255 255
0.8824 0.160258 2.05104 255 255 255
0.8824 0.160258 2.05104 255 255 255
0.848521 0.168686 2.08927 255 255 255
0.731118 0.213659 2.21754 255 255 255
0.730066 0.218462 2.22123 255 255 255
0.730066 0.218462 2.22123 255 255 255
0.77655 0.214843 2.16548 255 255 255
0.713987 0.236709 2.23951 255 255 255
-0.226555 0.275829 2.24869 255 255 255
0.722205 0.246322 2.22647 255 255 255
-0.0915692 0.299771 2.36002 255 255 255
0.764812 0.246444 2.17632 255 255 255
0.915951 0.232964 1.99952 255 255 255
0.782138 0.262937 2.15177 255 255 255
0.734389 0.271919 2.20517 255 255 255
0.0494628 0.476155 2.45071 255 255 255
-0.252576 0.48906 2.18161 255 255 255
-0.748979 -0.391683 1.91666 255 255 255
-0.753685 -0.381443 1.91432 255 255 255
-0.728933 -0.377082 1.93105 255 255 255
0.33835 -0.647624 2.74921 255 255 255
-0.667938 -0.306726 1.97138 255 255 255
-0.642537 -0.31271 1.99531 255 255 255
-0.654546 -0.304893 1.98377 255 255 255
-0.636902 -0.301972 1.99818 255 255 255
-0.812342 -0.201289 1.82553 255 255 255
-0.723897 -0.1492 1.8911 255 255 255
0.266238 -0.373592 2.67939 255 255 255
-0.61446 -0.167569 1.97455 255 255 255
-0.493179 -0.126334 2.08769 255 255 255
-0.490147 -0.120461 2.08776 255 255 255
-0.490147 -0.120461 2.08776 255 255 255
0.134447 -0.235017 2.66746 255 255 255
0.241042 -0.238281 2.65422 255 255 255
-0.322957 -0.140962 2.24767 255 255 255
-0.648785 -0.0401779 1.93688 255 255 255
-0.141301 -0.105278 2.40031 255 255 255
-0.566866 -0.0449669 2.02584 255 255 255
-0.411804 -0.0563536 2.15091 255 255 255
-0.376354 -0.0510649 2.18036 255 255 255
0.683862 -0.156767 2.34079 255 255 255
0.701754 -0.15145 2.31855 255 255 255
0.498158 -0.105782 2.5528 255 255 255
0.795306 -0.131035 2.20113 255 255 255
0.760057 -0.122115 2.24675 255 255 255
0.748733 -0.119424 2.25547 255 255 255
0.748733 -0.119424 2.25547 255 255 255
0.118565 -0.0551907 2.62199 255 255 255
0.77287 -0.0885981 2.2215 255 255 255
0.765467 -0.0880164 2.23094 255 255 255
-0.106318 0.0202533 2.40538 255 255 255
-0.244289 0.0340006 2.27948 255 255 255
0.774716 -0.0463664 2.21258 255 255 255
0.882974 -0.0576817 2.08241 255 255 255
0.758482 -0.0423984 2.2282 255 255 255
-0.106426 0.0401747 2.40129 255 255 255
0.873857 -0.0382786 2.10367 255 255 255
0.709842 -0.0151478 2.28086 255 255 255
0.297619 0.0495957 2.61 255 255 255
0.260484 0.0617779 2.61005 255 255 255
0.882556 -0.00443229 2.07777 255 255 255
0.881975 0.00542152 2.07895 255 255 255
0.874472 0.0145992 2.08413 255 255 255
0.882272 0.018625 2.07687 255 255 255
0.880758 0.0378407 2.07501 255 255 255
0.880758 0.0378407 2.07501 255 255 255
0.885114 0.0368841 2.06704 255 255 255
0.742023 0.0765966 2.22862 255 255 255
0.872538 0.064311 2.08253 255 255 255
0.876178 0.0836332 2.07203 255 255 255
-0.242507 0.173385 2.25352 255 255 255
0.787397 0.109041 2.16898 255 255 255
-0.171724 0.182512 2.31369 255 255 255
-0.171677 0.182949 2.314 255 255 255
0.785834 0.138187 2.16668 255 255 255
-0.102305 0.20477 2.36926 255 255 255
0.0143073 0.210651 2.47435 255 255 255
0.754896 0.151982 2.19997 255 255 255
-0.237734 0.230312 2.24674 255 255 255
0.772286 0.180301 2.17699 255 255 255
0.731933 0.198009 2.22186 255 255 255
0.733594 0.227508 2.21275 255 255 255
0.895909 0.200729 2.02909 255 255 255
-0.069099 0.281871 2.38368 255 255 255
0.319986 0.301138 2.54543 255 255 255
-0.129371 0.341927 2.31821 255 255 255
-0.0906674 0.352332 2.34901 255 255 255
-0.466679 0.325521 2.02516 255 255 255
-0.285144 0.366965 2.17876 255 255 255
-0.259696 0.374609 2.20031 255 255 255
-0.485529 0.362349 1.99989 255 255 255
-0.0461154 0.436284 2.37525 255 255 255
-0.0457237 0.452274 2.37161 255 255 255
-0.492101 0.391136 1.98766 255 255 255
-0.133943 0.468368 2.29181 255 255 255
0.878292 0.394933 1.8007 255 255 255
-0.180517 0.499573 2.24403 255 255 255
-0.816154 -0.361969 1.8544 255 255 255
-0.826668 -0.270175 1.82666 255 255 255
-0.556176 -0.353376 2.07963 255 255 255
-0.455717 -0.224256 2.14761 255 255 255
-0.363906 -0.24456 2.23893 255 255 255
-0.653162 -0.155549 1.95523 255 255 255
0.245653 -0.229774 2.65365 255 255 255
0.38554 -0.208637 2.69898 255 255 255
0.421887 -0.196932 2.66829 255 255 255
0.683968 -0.207965 2.34858 255 255 255
-0.657441 -0.038584 1.92918 255 255 255
0.949579 -0.215628 2.03566 255 255 255
-0.371644 -0.0765184 2.19166 255 255 255
-0.305887 -0.0381283 2.24211 255 255 255
0.707671 -0.127913 2.30448 255 255 255
0.705913 -0.116973 2.30756 255 255 255
0.779457 -0.0919371 2.21337 255 255 255
0.716639 -0.0504741 2.27989 255 255 255
-0.78163 0.0715748 1.80018 255 255 255
0.314069 0.0299034 2.60083 255 255 255
0.743982 -0.00608109 2.24435 255 255 255
0.713938 0.00091378 2.27667 255 255 255
0.877677 0.0322736 2.07986 255 255 255
0.858335 0.0731871 2.11324 255 255 255
-0.745007 0.158403 1.81566 255 255 255
-0.739085 0.161014 1.81989 255 255 255
0.744741 0.122579 2.22079 255 255 255
-0.17843 0.19449 2.3065 255 255 255
-0.251959 0.192545 2.24136 255 255 255
-0.730793 0.190367 1.82182 255 255 255
0.787651 0.154896 2.16348 255 255 255
0.192295 0.239761 2.6113 255 255 255
0.192154 0.253096 2.61057 255 255 255
0.754051 0.188691 2.1967 255 255 255
0.802999 0.20715 2.13556 255 255 255
-0.0476695 0.332843 2.39506 255 255 255
-0.138159 0.46245 2.29026 255 255 255
-0.138209 0.462438 2.29027 255 255 255
-0.782219 -0.414885 1.88217 255 255 255
-0.745523 -0.403044 1.9192 255 255 255
-0.720667 -0.399047 1.93877 255 255 255
-0.684678 -0.335542 1.9626 255 255 255
-0.822056 -0.264777 1.82842 255 255 255
-0.496913 -0.287653 2.12059 255 255 255
-0.812899 -0.167262 1.81881 255 255 255
-0.762597 -0.134227 1.85529 255 255 255
-0.566953 -0.120193 2.01918 255 255 255
0.476302 -0.12531 2.6057 255 255 255
-0.242981 -0.0258928 2.29455 255 255 255
0.858172 -0.0622723 2.11755 255 255 255
-0.78121 0.0768217 1.79992 255 255 255
0.747325 0.154783 2.20916 255 255 255
0.903908 0.205272 2.01727 255 255 255
-0.132829 0.320448 2.3185 255 255 255
-0.0488968 0.346949 2.39217 255 255 255
-0.0295179 0.374055 2.39308 255 255 255
0.0605549 0.504052 2.4597 255 255 255
-0.0442499 0.532189 2.3548 255 255 255
-0.811766 -0.390984 1.86255 255 255 255
-0.060816 -0.264607 2.5015 255 255 255
-0.75632 -0.037231 1.85848 255 255 255
0.488836 -0.172494 2.59533 255 255 255
0.475298 -0.169737 2.61318 255 255 255
0.488668 -0.150682 2.58816 255 255 255
0.803942 -0.170915 2.19925 255 255 255
-0.586618 0.0526933 1.99125 255 255 255
0.747074 0.0827181 2.22634 255 255 255
0.876276 0.13928 2.06206 255 255 255
0.876276 0.13928 2.06206 255 255 255
-0.0387317 0.378514 2.38847 255 255 255
-0.0386985 0.394853 2.38463 255 255 255
-0.0386985 0.394853 2.38463 255 255 255
-0.0379292 0.419914 2.38085 255 255 255
-0.0379292 0.419914 2.38085 255 255 255
-0.818752 -0.397664 1.85706 255 255 255
-0.354571 -0.145358 2.21956 255 255 255
-0.326175 -0.109323 2.24132 255 255 255
0.698529 -0.192186 2.33119 255 255 255
0.796637 -0.0763417 2.19077 255 255 255
0.996811 -0.0506583 1.97348 255 255 255
0.294815 0.0244732 2.59996 255 255 255
0.70557 -0.014061 2.29122 255 255 255
-0.0400656 0.300964 2.40226 255 255 255
-0.0400656 0.300964 2.40226 255 255 255
-0.0547181 0.309951 2.39346 255 255 255
-0.751945 0.305557 1.79748 255 255 255
-0.0365437 0.522243 2.36208 255 255 255
-0.750491 -0.164447 1.86914 255 255 255
0.204245 -0.179734 2.66482 255 255 255
0.702569 -0.131772 2.3172 255 255 255
1.00692 -0.0576247 1.96277 255 255 255
0.746536 0.0389403 2.23082 255 255 255
0.736107 0.0945137 2.23294 255 255 255
-0.148502 0.271087 2.31706 255 255 255
-0.0558501 0.416105 2.37513 255 255 255
-0.0565634 0.442051 2.36544 255 255 255
-0.019596 0.444542 2.38417 255 255 255
-0.646681 -0.262501 1.98195 255 255 255
0.471126 0.0856254 2.57336 255 255 255
0.301551 0.186701 2.57813 255 255 255
-0.765266 -0.390492 1.8977 255 255 255
-0.812836 -0.362171 1.85381 255 255 255
-0.686483 -0.211577 1.93374 255 255 255
0.294991 -0.625896 2.7294 255 255 255
0.246179 -0.610991 2.73302 255 255 255
-0.311153 -0.29283 2.28689 255 255 255
-0.252499 -0.29679 2.33967 255 255 255
-0.3079 -0.222616 2.27722 255 255 255
1.20426 -0.502275 1.70521 255 255 255
0.188527 -0.226292 2.69694 255 255 255
-0.306757 -0.121756 2.25861 255 255 255
0.785869 -0.304402 2.24516 255 255 255
0.790127 -0.30515 2.24026 255 255 255
0.78597 -0.287432 2.2433 255 255 255
-0.380439 -0.0603241 2.17907 255 255 255
0.790296 -0.171164 2.21646 255 255 255
0.791138 -0.152992 2.21348 255 255 255
-0.10154 0.0240092 2.40675 255 255 255
0.773701 -0.0947546 2.2219 255 255 255
0.78453 -0.0910434 2.20737 255 255 255
0.807753 -0.0777381 2.17932 255 255 255
0.784254 -0.0715955 2.20441 255 255 255
0.798456 -0.0665817 2.18683 255 255 255
0.854295 -0.058759 2.12161 255 255 255
1.11877 -0.104841 1.81687 255 255 255
0.881526 -0.0362638 2.08704 255 255 255
0.776768 -0.004507 2.20316 255 255 255
0.881273 -0.0201262 2.08176 255 255 255
0.71698 0.0152717 2.27143 255 255 255
0.885782 -0.0156551 2.07697 255 255 255
0.838497 -0.00469046 2.15267 255 255 255
0.876843 0.00858259 2.08315 255 255 255
0.815741 0.033763 2.17466 255 255 255
0.770501 0.0491201 2.20231 255 255 255
0.874902 0.0431444 2.08277 255 255 255
0.879856 0.0478463 2.07498 255 255 255
