ply
format ascii 1.0
element vertex 493
property float x
property float y
property float z
property uchar red
property uchar green
property uchar blue
end_header
0.0331875 0.280895 -0.68454 0 255 0
0.0207325 0.180969 -0.172323 0 255 0
-0.00753502 0.0996039 0.246722 0 255 0
-0.102831 0.00937767 0.804046 0 255 0
-0.223081 -0.0865204 1.38775 0 255 0
-0.285329 -0.184718 1.90158 0 255 0
-0.393741 -0.291106 2.47844 0 255 0
-0.51429 -0.362913 2.90458 0 255 0
-0.661708 -0.426242 3.30361 0 255 0
-0.814287 -0.508289 3.72275 0 255 0
-1.03317 -0.577567 4.1552 0 255 0
0.168079 -4.5693 10.8189 255 255 255
-0.910246 -4.36184 10.3914 255 255 255
-0.90558 -4.31557 10.5744 255 255 255
-1.88922 -2.85776 7.5265 255 255 255
-1.76419 -2.84686 7.52464 255 255 255
-1.77084 -2.75952 7.71679 255 255 255
-1.77995 -4.65409 12.9119 255 255 255
-0.855135 -5.22023 14.7618 255 255 255
1.75808 -5.64067 17.1595 255 255 255
-1.71318 -4.53663 14.299 255 255 255
-1.74122 -4.91654 15.443 255 255 255
-1.87911 -2.37169 7.72503 255 255 255
-1.83681 -4.31436 13.8676 255 255 255
-1.66427 -5.38977 17.3118 255 255 255
-1.62255 -4.7626 15.5284 255 255 255
-1.83318 -4.21946 13.8415 255 255 255
-0.707954 -6.86984 22.8521 255 255 255
1.93464 -6.85939 23.2577 255 255 255
-1.52635 -6.82729 23.1892 255 255 255
-0.779049 -6.8664 23.6788 255 255 255
-0.52829 -7.09372 24.4119 255 255 255
-1.93791 -2.4151 8.71368 255 255 255
-1.74828 -4.07804 14.5342 255 255 255
2.13737 -6.53567 23.8569 255 255 255
-0.133106 -7.2398 26.8079 255 255 255
-1.82242 -3.5976 13.8375 255 255 255
-1.88307 -3.43984 13.5994 255 255 255
1.3825 -7.55157 29.388 255 255 255
-2.33887 -3.27069 13.2961 255 255 255
-2.66762 -1.74354 7.42442 255 255 255
-1.57021 -5.78794 23.7585 255 255 255
2.3487 -3.57023 15.4436 255 255 255
-1.79144 -4.6444 19.8977 255 255 255
2.20358 -3.59606 15.7879 255 255 255
-1.75071 -3.28302 14.394 255 255 255
-1.69566 -4.58239 20.468 255 255 255
-1.5886 -4.57353 20.5744 255 255 255
1.447 -6.44807 30.0859 255 255 255
0.0813962 -5.74264 27.5735 255 255 255
-1.97032 -1.70417 8.71598 255 255 255
-2.68243 -1.44295 7.50251 255 255 255
-3.12983 -1.41881 7.39558 255 255 255
-2.96836 -1.41107 7.46322 255 255 255
-3.71953 -1.42369 7.51833 255 255 255
2.06037 -5.26147 28.0228 255 255 255
-3.11198 -1.27998 7.40299 255 255 255
-3.77359 -1.30558 7.49276 255 255 255
-2.72805 -1.28943 7.57466 255 255 255
1.74011 -5.05683 28.6241 255 255 255
-1.79078 -2.55077 14.8439 255 255 255
-2.05316 -1.46934 9.04619 255 255 255
-2.78491 -1.18333 7.46211 255 255 255
-1.796 -1.1954 7.65742 255 255 255
2.02726 -4.66571 27.8254 255 255 255
-3.10854 -1.15501 7.40259 255 255 255
-1.75475 -3.29392 19.8752 255 255 255
-2.91881 -1.13585 7.48296 255 255 255
-2.17811 -2.08046 13.1336 255 255 255
1.08376 -4.52927 27.9695 255 255 255
-1.75988 -2.3006 14.6522 255 255 255
-2.93928 -1.00845 7.53123 255 255 255
-0.135709 -3.81227 27.3169 255 255 255
-1.0543 -3.71923 26.7785 255 255 255
1.94273 -1.97071 15.3614 255 255 255
2.30839 -1.91858 15.3058 255 255 255
-1.74948 -2.47264 19.9008 255 255 255
-2.88022 -0.742768 7.55572 255 255 255
1.35553 -2.98109 26.6126 255 255 255
-3.17633 -0.713986 7.53308 255 255 255
-2.73908 -0.711098 7.65152 255 255 255
-1.46324 -2.54837 23.3633 255 255 255
2.31331 -2.59278 26.1044 255 255 255
-2.8456 -0.564269 7.59968 255 255 255
-3.18765 -0.567248 7.56778 255 255 255
-1.66486 -1.57037 18.7048 255 255 255
-2.79586 -0.398789 7.68392 255 255 255
-1.92985 -0.334484 7.59083 255 255 255
-1.28372 -1.28534 22.0332 255 255 255
-0.238746 -1.31802 23.5765 255 255 255
-0.0457041 -1.27957 23.1385 255 255 255
-1.30968 -1.02155 20.8672 255 255 255
-1.14051 -0.996357 20.4741 255 255 255
-0.6209 -1.11909 22.913 255 255 255
-3.22933 -0.255247 7.65671 255 255 255
-2.7283 -0.238428 7.70079 255 255 255
-2.01442 -0.799836 19.6852 255 255 255
1.76453 -0.958234 24.4927 255 255 255
-0.506818 -0.878289 23.0765 255 255 255
0.185128 -0.882583 23.518 255 255 255
-1.50425 -0.604207 18.9826 255 255 255
-1.07839 -0.5272 18.8023 255 255 255
0.399575 -0.720493 24.4498 255 255 255
-2.54953 -0.071906 7.72764 255 255 255
-2.07024 -0.0609848 7.75545 255 255 255
-1.25436 -0.486944 18.9219 255 255 255
1.76735 -0.333244 23.2607 255 255 255
-1.10129 -0.145871 17.8478 255 255 255
1.75604 -0.00922101 22.1351 255 255 255
-0.161915 -0.0268273 20.6279 255 255 255
2.33132 0.0336436 21.3784 255 255 255
-0.280794 0.227912 19.8407 255 255 255
0.870237 0.266196 20.3118 255 255 255
0.985008 0.261692 19.8868 255 255 255
-1.08403 0.203807 19.6816 255 255 255
2.20269 0.437153 19.2895 255 255 255
-1.18636 0.422282 17.6166 255 255 255
0.00177034 0.534702 17.3243 255 255 255
0.233235 0.579746 18.0805 255 255 255
0.375589 0.602734 18.4568 255 255 255
-0.356647 0.711587 17.1644 255 255 255
0.893681 0.756194 17.3285 255 255 255
2.34394 0.894922 17.3833 255 255 255
2.27928 0.987067 16.6384 255 255 255
-0.205022 0.990034 15.4478 255 255 255
-1.79728 1.0244 14.9566 255 255 255
0.391985 1.07726 15.5443 255 255 255
-0.207961 1.12155 15.4325 255 255 255
-0.434834 1.19061 14.5177 255 255 255
-0.300219 1.17895 14.4182 255 255 255
-2.03021 1.21902 14.1914 255 255 255
-0.440867 1.37706 13.9237 255 255 255
0.859514 1.4087 14.0184 255 255 255
2.21338 1.47687 14.083 255 255 255
0.660534 1.46305 13.9631 255 255 255
-0.257208 1.64572 12.2508 255 255 255
0.553458 1.64911 12.2052 255 255 255
-0.465126 1.66534 12.0051 255 255 255
0.76365 1.70001 12.0732 255 255 255
-0.494257 1.84367 11.4908 255 255 255
0.816782 1.88529 11.5831 255 255 255
0.602395 1.91721 11.3867 255 255 255
-0.210574 1.94273 10.7696 255 255 255
0.576317 1.95527 10.7766 255 255 255
0.781952 1.99587 10.612 255 255 255
-0.307758 2.04229 10.3957 255 255 255
-0.210019 2.08938 10.4067 255 255 255
-0.520702 2.12724 9.56346 255 255 255
-0.362024 2.12391 9.54518 255 255 255
-1.98011 2.14222 9.25409 255 255 255
-1.7116 -2.80978 7.60028 255 255 255
-1.8216 -2.47692 7.79299 255 255 255
2.34668 -4.20744 15.4874 255 255 255
-0.610306 -7.21731 25.7185 255 255 255
-0.5 -5.20136 28.8875 255 255 255
2.40985 -3.20372 27.3033 255 255 255
-0.758463 -2.45529 23.2243 255 255 255
-2.84138 -0.662886 7.48119 255 255 255
-3.04164 -0.585834 7.56701 255 255 255
-0.157867 0.223519 19.6527 255 255 255
-1.91677 0.648736 17.0167 255 255 255
0.920052 0.93621 16.6776 255 255 255
-1.93191 0.906013 13.8706 255 255 255
-1.94568 0.601928 7.7875 255 255 255
2.29463 1.39356 14.9351 255 255 255
-0.23777 1.42254 13.8071 255 255 255
-0.287839 1.88993 11.339 255 255 255
-3.76276 1.77318 8.13079 255 255 255
0.459656 -4.51653 10.6936 255 255 255
-1.81892 -3.90004 9.62115 255 255 255
-1.78002 -3.93429 10.1272 255 255 255
1.53552 -5.17685 13.8434 255 255 255
-0.855066 -5.2288 14.5068 255 255 255
-1.77618 -4.29467 14.008 255 255 255
-1.95645 -2.33217 8.30527 255 255 255
2.19258 -4.47253 15.6784 255 255 255
2.41478 -4.56269 17.5475 255 255 255
1.22684 -7.7505 30.198 255 255 255
-2.32362 -3.20148 13.3157 255 255 255
-1.88308 -3.24817 13.5473 255 255 255
-3.70924 -1.40189 7.40379 255 255 255
-2.97005 -1.37388 7.45107 255 255 255
-2.85016 -1.29424 7.2538 255 255 255
-2.2101 -2.22689 13.0566 255 255 255
2.69086 -3.61917 26.4632 255 255 255
1.29203 -3.21868 26.3675 255 255 255
-2.12145 -0.920648 8.08137 255 255 255
-3.17964 -0.834463 7.55739 255 255 255
2.42272 -3.77212 32.2841 255 255 255
-3.16867 -0.796546 7.53141 255 255 255
-2.97902 -0.746286 7.50188 255 255 255
-2.92878 -0.740021 7.53391 255 255 255
-2.71982 -0.657112 7.61384 255 255 255
-2.72549 -0.617179 7.63051 255 255 255
0.293282 -2.06555 24.5021 255 255 255
2.6239 -1.94207 25.244 255 255 255
-3.1079 -0.555062 7.73071 255 255 255
-0.826921 -1.57025 22.4611 255 255 255
-1.77848 -1.27387 18.7098 255 255 255
-3.11374 -0.411239 7.82558 255 255 255
-0.430855 -1.0418 22.9373 255 255 255
-0.935751 -0.363976 20.2993 255 255 255
-0.0590788 1.79246 12.1378 255 255 255
0.0277874 1.81758 12.2833 255 255 255
-1.52045 2.11929 9.73503 255 255 255
0.104983 -4.61151 10.9113 255 255 255
1.63677 -4.37984 10.7815 255 255 255
1.78765 -4.09229 11.2278 255 255 255
2.0459 -3.45532 10.7945 255 255 255
2.12865 -4.7203 14.8078 255 255 255
2.25453 -4.20468 13.2541 255 255 255
-1.8211 -2.43507 7.84316 255 255 255
2.06385 -3.74605 12.7397 255 255 255
2.34414 -2.94089 10.5722 255 255 255
-1.99769 -2.07253 7.43957 255 255 255
2.3466 -3.36399 12.5294 255 255 255
2.28334 -2.60112 13.0358 255 255 255
-1.8664 -1.5473 8.18793 255 255 255
-2.73675 -1.2392 7.59783 255 255 255
2.24447 -1.69983 12.9077 255 255 255
2.24053 -1.35274 11.3371 255 255 255
-1.92918 2.31134 8.5831 255 255 255
-3.0069 -0.626809 7.72799 255 255 255
-2.78907 -0.584916 7.77017 255 255 255
-2.96026 -0.407631 7.82876 255 255 255
0.956321 0.00410974 21.821 255 255 255
-2.01877 0.396131 7.95959 255 255 255
0.664123 0.64334 19.3899 255 255 255
-1.99545 1.01803 14.1971 255 255 255
2.1895 1.764 12.6707 255 255 255
2.17286 1.8636 12.0321 255 255 255
1.76585 2.01788 11.3199 255 255 255
2.21549 2.14945 10.8422 255 255 255
2.16548 2.23682 10.0697 255 255 255
0.812725 2.1918 9.68916 255 255 255
-0.308203 2.25984 8.9064 255 255 255
-0.231538 2.26943 8.93364 255 255 255
-0.504135 2.33782 9.01168 255 255 255
-0.236696 2.38956 8.85035 255 255 255
-4.09263 2.30753 8.22056 255 255 255
-3.93627 2.31566 8.23056 255 255 255
-1.81905 -3.78837 8.69719 255 255 255
-1.77358 -3.81524 9.02804 255 255 255
-1.7537 -3.63729 8.68534 255 255 255
-0.830066 -4.37608 10.4948 255 255 255
2.25471 -3.84746 12.5116 255 255 255
2.14223 -3.81123 12.7625 255 255 255
2.26623 -2.22328 11.3462 255 255 255
2.39503 -1.88641 12.302 255 255 255
-2.86214 -0.960058 7.46716 255 255 255
2.31166 -1.09767 10.3854 255 255 255
-1.8189 1.08065 13.6905 255 255 255
-1.46233 1.72971 11.7069 255 255 255
-0.0226318 2.02222 10.5223 255 255 255
-1.84195 2.27024 8.79301 255 255 255
-3.78986 2.33547 8.23554 255 255 255
-0.589021 -4.16503 8.77458 255 255 255
-0.235065 -4.13365 8.73784 255 255 255
-1.78952 -3.57229 7.68069 255 255 255
-0.341373 -4.26721 9.1776 255 255 255
-1.73897 -3.50858 7.69208 255 255 255
0.147054 -4.48505 9.94999 255 255 255
-1.78759 -3.47852 7.78891 255 255 255
-1.7521 -3.58103 8.01479 255 255 255
-0.619641 -4.31216 9.6178 255 255 255
-1.85068 -3.26331 7.50935 255 255 255
1.91189 -3.35824 7.78926 255 255 255
-1.70603 -4.04212 10.4646 255 255 255
1.92665 -5.58779 14.7258 255 255 255
2.10899 -3.1805 8.95728 255 255 255
-1.79721 -2.55062 7.32353 255 255 255
2.23565 -3.75418 11.4249 255 255 255
-1.86205 -2.38833 7.53277 255 255 255
2.25606 -2.76193 9.13511 255 255 255
2.39438 -3.55825 11.764 255 255 255
-1.98987 -2.20617 7.61779 255 255 255
2.37602 -2.47516 8.69783 255 255 255
2.25814 -2.98445 10.6142 255 255 255
2.25289 -2.47057 9.12214 255 255 255
2.42324 -2.13635 10.703 255 255 255
2.28285 -1.92261 9.70533 255 255 255
-3.8176 -1.38764 7.41793 255 255 255
-2.71247 -1.25685 7.27237 255 255 255
2.47614 -2.08606 12.6373 255 255 255
2.46454 -1.6293 10.9084 255 255 255
2.32465 -1.26717 8.97654 255 255 255
2.18903 -2.03734 15.4739 255 255 255
2.22702 -1.00447 9.60109 255 255 255
2.26187 -0.774431 8.82755 255 255 255
-3.10689 -0.619184 7.64466 255 255 255
-3.12773 -0.398683 7.57949 255 255 255
-3.27307 -0.344068 7.83366 255 255 255
2.1626 -0.199737 8.68067 255 255 255
2.24355 0.023648 8.76337 255 255 255
-2.09259 0.747719 8.25116 255 255 255
-1.88662 2.24574 9.0602 255 255 255
2.16932 2.46046 9.23665 255 255 255
-3.88798 2.32039 8.2784 255 255 255
-2.04204 2.39774 8.3129 255 255 255
-3.19542 2.40153 8.33577 255 255 255
-2.66259 2.38353 8.22151 255 255 255
-2.1679 2.40232 8.24667 255 255 255
2.12723 2.57745 8.57781 255 255 255
-1.41637 2.42723 8.16211 255 255 255
-1.10813 2.51008 8.06334 255 255 255
-0.896048 2.50954 7.97974 255 255 255
-1.463 2.49078 7.85051 255 255 255
-2.75841 2.52233 7.64437 255 255 255
-1.65896 2.5585 7.54779 255 255 255
1.8185 -3.84987 7.40756 255 255 255
-1.83538 -3.35604 6.50137 255 255 255
-1.78198 -3.28694 6.48602 255 255 255
-1.78953 -3.17451 6.39175 255 255 255
2.14665 -3.59658 7.26033 255 255 255
1.84593 -3.66054 7.47386 255 255 255
-1.70924 -3.13729 6.39796 255 255 255
-1.78169 -3.38145 6.90245 255 255 255
2.0353 -2.84266 5.90253 255 255 255
2.1447 -3.49771 7.30318 255 255 255
1.80596 -3.51741 7.31369 255 255 255
-1.74693 -3.37434 7.08293 255 255 255
1.95589 -2.75818 5.81592 255 255 255
2.09402 -3.01951 6.57817 255 255 255
2.08117 -2.77974 6.07251 255 255 255
1.89352 -2.39478 5.38563 255 255 255
1.8771 -2.28011 5.13223 255 255 255
1.98676 -2.57371 6.06869 255 255 255
1.87417 -2.43407 5.83799 255 255 255
1.96068 -2.69203 6.73739 255 255 255
1.89636 -2.69575 7.15582 255 255 255
2.09866 -2.59037 7.15294 255 255 255
2.1519 -1.23008 5.59721 255 255 255
2.20716 -1.391 6.32088 255 255 255
-3.88239 -1.60497 7.73606 255 255 255
2.08465 -0.907774 5.49543 255 255 255
2.15962 -0.72876 6.01207 255 255 255
2.09214 -0.638085 5.54409 255 255 255
-3.06587 -0.798035 7.32262 255 255 255
-2.90339 -0.72532 7.31651 255 255 255
2.1943 -0.482373 6.40416 255 255 255
-3.14137 -0.687907 7.88296 255 255 255
2.09026 -0.316664 5.54281 255 255 255
2.14152 0.474121 4.99604 255 255 255
2.07903 0.612398 5.5644 255 255 255
2.1579 1.00107 5.06651 255 255 255
-2.02927 1.45209 8.19313 255 255 255
2.01334 1.8418 8.64785 255 255 255
2.12147 2.06652 8.67431 255 255 255
1.93255 2.05342 8.33743 255 255 255
2.05032 2.10534 8.59567 255 255 255
0.995416 2.66038 9.89406 255 255 255
0.577099 2.40484 8.69434 255 255 255
-4.31064 2.40274 8.53763 255 255 255
-2.08108 2.4744 8.07385 255 255 255
2.14526 2.60055 8.00092 255 255 255
0.522992 2.60253 7.78484 255 255 255
-1.31928 2.57072 7.41493 255 255 255
0.578922 2.60265 7.33861 255 255 255
0.427445 2.55802 7.16356 255 255 255
0.373024 2.56799 7.16111 255 255 255
-1.08648 2.61168 7.30654 255 255 255
-0.324211 2.62338 7.29539 255 255 255
-0.24827 2.61189 7.27341 255 255 255
2.10377 2.69874 7.45471 255 255 255
2.03656 2.73917 7.35704 255 255 255
0.523633 2.63249 7.03138 255 255 255
-0.527231 2.65638 7.11875 255 255 255
-0.342287 2.72565 7.18252 255 255 255
-0.263569 2.72322 7.17249 255 255 255
-0.13513 2.75676 7.19284 255 255 255
0.0973532 2.82562 7.41135 255 255 255
-2.57375 2.67977 7.00893 255 255 255
2.06129 2.80347 6.82689 255 255 255
-3.2679 2.72226 6.63845 255 255 255
-0.686718 2.80288 6.48146 255 255 255
-2.26995 2.79633 6.47746 255 255 255
-0.823455 2.84673 6.48033 255 255 255
-0.121857 -4.1899 8.76155 255 255 255
-0.0590512 -4.34787 9.18774 255 255 255
-0.531685 -4.17289 8.88016 255 255 255
0.0110888 -4.42224 9.61217 255 255 255
-0.513681 -4.46734 9.87371 255 255 255
-0.0517423 -4.54836 10.1351 255 255 255
1.96417 -3.31666 7.65495 255 255 255
2.09887 -3.01485 8.18593 255 255 255
2.14113 -3.31952 9.8233 255 255 255
2.29869 -3.18379 11.1499 255 255 255
-3.21461 -0.366611 7.84216 255 255 255
2.24534 2.46771 9.94397 255 255 255
-1.93016 2.29258 8.68002 255 255 255
-1.97545 2.36411 8.3782 255 255 255
-2.22497 2.52585 8.42115 255 255 255
-2.07626 2.49685 7.6624 255 255 255
-1.54753 2.54682 7.77307 255 255 255
-2.6354 2.50985 7.61581 255 255 255
0.833784 3.24039 9.84758 255 255 255
-1.38482 2.55758 7.43359 255 255 255
-0.381286 -4.26485 9.55933 255 255 255
-0.709809 -4.10038 9.23941 255 255 255
0.329067 -4.36206 10.2876 255 255 255
2.10926 -3.58998 11.5875 255 255 255
2.0868 -3.77917 12.5071 255 255 255
1.9962 -3.68618 12.3729 255 255 255
1.86448 -3.47279 12.0592 255 255 255
2.09643 -3.50172 12.5371 255 255 255
2.35892 -2.38674 12.1662 255 255 255
-2.84288 -1.34291 7.51067 255 255 255
2.19689 -1.80028 11.2041 255 255 255
2.35463 -1.49042 12.2409 255 255 255
-2.96452 -0.893539 7.65026 255 255 255
-3.03762 -0.861115 7.69466 255 255 255
-2.98867 -0.857149 7.71159 255 255 255
-3.05081 -0.660113 7.67984 255 255 255
-3.06989 -0.415034 7.8916 255 255 255
-0.000586772 1.60493 12.2238 255 255 255
-0.0429963 2.28226 9.05607 255 255 255
-1.87339 2.20671 8.5675 255 255 255
0.378374 2.29344 9.08319 255 255 255
-1.83836 -2.52764 7.78597 255 255 255
-1.98553 -2.37802 7.81668 255 255 255
0.262691 -6.05826 18.8664 255 255 255
-1.59352 -4.49996 15.5543 255 255 255
-1.95168 -3.12438 13.4577 255 255 255
-2.82428 -1.39134 7.36425 255 255 255
-2.97266 -1.2826 7.19567 255 255 255
-1.86728 -1.27897 7.9138 255 255 255
-3.03874 -1.16768 7.28718 255 255 255
-1.83672 -1.23171 7.92628 255 255 255
-2.9097 -0.955792 7.42024 255 255 255
-1.80432 -1.59142 18.0143 255 255 255
-2.70739 -0.636429 7.52005 255 255 255
-3.01657 -0.615001 7.47097 255 255 255
-1.59118 -0.755588 18.6613 255 255 255
1.64003 -1.01315 27.1777 255 255 255
-1.89929 -0.413904 7.47981 255 255 255
1.77135 -0.486806 24.6375 255 255 255
-0.244018 -0.0297432 21.5525 255 255 255
-0.281431 0.408813 18.9993 255 255 255
-0.379746 0.907374 16.4302 255 255 255
-0.172173 0.965251 16.3989 255 255 255
-2.71765 1.05917 7.84655 255 255 255
-0.232457 1.94506 11.3336 255 255 255
-0.286486 1.98054 10.8545 255 255 255
-1.93928 -3.04938 7.81838 255 255 255
-1.76631 -2.82023 7.78933 255 255 255
-1.83607 -2.7968 7.89324 255 255 255
-1.85618 -2.74445 7.84845 255 255 255
1.96963 -5.34082 14.4835 255 255 255
-1.85734 -0.897753 5.48691 255 255 255
-3.17109 -0.350844 7.60007 255 255 255
-1.82523 -0.238939 7.23744 255 255 255
-1.88731 0.477325 7.62675 255 255 255
1.17037 1.66169 13.476 255 255 255
-1.91547 0.966979 7.88651 255 255 255
0.0129778 1.99081 11.5428 255 255 255
-1.92819 1.19534 7.84233 255 255 255
-1.92574 2.12078 9.3226 255 255 255
-1.95391 2.22688 9.43756 255 255 255
-1.946 -2.44312 7.78483 255 255 255
-1.94135 -2.60579 8.27254 255 255 255
-1.9817 -2.19681 7.61052 255 255 255
0.710938 -5.72312 16.8479 255 255 255
-3.19561 -1.80213 7.37753 255 255 255
-2.00128 -1.80694 7.67005 255 255 255
-3.73293 -1.38275 7.32348 255 255 255
-1.79534 -1.47282 8.08948 255 255 255
-1.89424 -0.912902 5.60863 255 255 255
-3.81545 -1.10388 7.38777 255 255 255
-3.0113 -1.0208 7.25243 255 255 255
-3.85435 -0.866019 7.44731 255 255 255
-2.91356 -0.644955 7.41424 255 255 255
-3.08086 -0.636057 7.39243 255 255 255
-2.77272 -0.63446 7.51256 255 255 255
-1.87816 -0.627623 7.42598 255 255 255
-2.92181 -0.60651 7.42559 255 255 255
-2.91506 -0.589668 7.5103 255 255 255
-2.88352 -0.585817 7.72718 255 255 255
-2.67385 -0.529703 7.51873 255 255 255
-2.49762 -0.486767 7.5428 255 255 255
-3.11168 -0.417208 7.55955 255 255 255
-2.69357 -0.34557 7.24876 255 255 255
-2.57867 -0.351652 7.112 255 255 255
-4.02418 -0.245027 7.71097 255 255 255
-1.9502 0.244187 7.60398 255 255 255
-1.77292 1.07609 13.3623 255 255 255
-1.93431 0.38009 7.74614 255 255 255
-1.52746 1.32145 13.1721 255 255 255
-2.65605 0.517126 7.91309 255 255 255
-1.95867 0.727255 7.89494 255 255 255
0.0165054 1.75158 12.8246 255 255 255
-1.93752 1.73003 11.5065 255 255 255
-4.19026 1.09779 7.89613 255 255 255
-1.96346 0.94823 7.83801 255 255 255
