ply
format ascii 1.0
element vertex 341
property float x
property float y
property float z
property uchar red
property uchar green
property uchar blue
end_header
0.00254626 -0.00453297 0.00348568 0 255 0
0.00209369 -0.00482841 0.00380192 0 255 0
0.00159329 -0.0050477 0.00401604 0 255 0
0.00105807 -0.00519594 0.00416143 0 255 0
0.000491511 -0.00527549 0.00425396 0 255 0
-7.82372e-05 -0.00528355 0.00427586 0 255 0
-0.000639716 -0.00522153 0.00423118 0 255 0
-0.00117441 -0.005094 0.00412551 0 255 0
-0.00167729 -0.00490564 0.00397207 0 255 0
-0.00213313 -0.00466152 0.00375455 0 255 0
-0.00256947 -0.0043424 0.0034745 0 255 0
-0.00288169 -0.00398522 0.00313677 0 255 0
-0.00309935 -0.00359309 0.00275829 0 255 0
-0.0032102 -0.00319081 0.00236074 0 255 0
-0.00322328 -0.00277815 0.00195418 0 255 0
-0.00313765 -0.00238993 0.00156292 0 255 0
-0.00296195 -0.00202224 0.00118885 0 255 0
-0.00270479 -0.00167901 0.000844259 0 255 0
-0.00237001 -0.00137361 0.000535656 0 255 0
-0.00197019 -0.00111044 0.000268437 0 255 0
-0.00151912 -0.000891586 5.08028e-05 0 255 0
-0.00102087 -0.000722071 -0.000116192 0 255 0
-0.000473744 -0.000606322 -0.000229285 0 255 0
0.000109188 -0.000562263 -0.000271963 0 255 0
0.000712041 -0.000602921 -0.000235937 0 255 0
0.0012954 -0.000736006 -0.000115845 0 255 0
0.00182275 -0.000951251 7.8592e-05 0 255 0
0.00227938 -0.0012344 0.000331558 0 255 0
0.00265346 -0.00156045 0.000631411 0 255 0
0.00293476 -0.0019212 0.000971545 0 255 0
0.00313481 -0.00230248 0.00134075 0 255 0
0.00323755 -0.00269774 0.00172571 0 255 0
0.00324884 -0.00311431 0.00213664 0 255 0
0.00313452 -0.0035244 0.00253244 0 255 0
0.0029603 -0.00389342 0.00290622 0 255 0
0.00270389 -0.00424019 0.00326738 0 255 0
1.84862e-05 -0.00156453 0.00344144 255 255 255
1.21153e-05 -0.00156083 0.00344909 255 255 255
-1.63496e-05 -0.00155219 0.0034572 255 255 255
5.7125e-05 -0.0015307 0.0034714 255 255 255
7.93639e-05 -0.00150802 0.0034807 255 255 255
0.000125386 -0.001451 0.00347375 255 255 255
0.000182379 -0.00135321 0.00352871 255 255 255
0.000153368 -0.00132201 0.00367752 255 255 255
0.000144478 -0.00130466 0.00374391 255 255 255
0.000163377 -0.00128826 0.00374737 255 255 255
7.07385e-05 -0.00138474 0.00375598 255 255 255
0.000248564 -0.00107998 0.0038 255 255 255
0.000192151 -0.00114272 0.00381579 255 255 255
0.000218762 -0.00110303 0.00382645 255 255 255
0.000155721 -0.00130026 0.00373194 255 255 255
4.77131e-05 -0.00136892 0.0037289 255 255 255
4.73348e-05 -0.00136612 0.00375587 255 255 255
0.000323276 -0.0010412 0.00381666 255 255 255
0.000317332 -0.0010314 0.00383633 255 255 255
0.00022614 -0.00107031 0.00386422 255 255 255
0.000218262 -0.00106605 0.00387383 255 255 255
0.000261487 -0.00104321 0.00385342 255 255 255
0.00012877 -0.00145155 0.00346435 255 255 255
0.000119502 -0.00145056 0.0035528 255 255 255
0.000358211 -0.00116479 0.00365357 255 255 255
0.000332599 -0.00110804 0.00373519 255 255 255
0.000346878 -0.00107915 0.00376454 255 255 255
0.000103634 -0.00109438 0.00402111 255 255 255
9.14761e-05 -0.0014446 0.0035794 255 255 255
0.00011221 -0.00121012 0.00386605 255 255 255
0.000137472 -0.00118313 0.00390017 255 255 255
-1.64148e-05 -0.00155221 0.00346015 255 255 255
0.000102018 -0.0010988 0.00399954 255 255 255
9.19487e-05 -0.00145457 0.00354284 255 255 255
6.13678e-05 -0.00137748 0.00373228 255 255 255
0.000110756 -0.00122917 0.00384388 255 255 255
-7.23313e-05 -0.00129755 0.0036019 255 255 255
6.55632e-05 -0.00134146 0.00378916 255 255 255
0.000103259 -0.00109042 0.00401356 255 255 255
-4.52541e-06 -0.00102114 0.00388532 255 255 255
7.57486e-05 -0.00139537 0.00361333 255 255 255
8.29874e-05 -0.0013512 0.00364885 255 255 255
8.05379e-05 -0.0013471 0.00364772 255 255 255
8.24698e-05 -0.00132276 0.00366794 255 255 255
8.70226e-05 -0.00131888 0.00368144 255 255 255
0.00010064 -0.00124028 0.00382415 255 255 255
2.41513e-05 -0.00102756 0.00387398 255 255 255
8.72149e-05 -0.00105189 0.00398755 255 255 255
-3.72274e-07 -0.00102865 0.00388401 255 255 255
-1.0894e-05 -0.0010165 0.00389227 255 255 255
5.49095e-05 -0.00134599 0.00358482 255 255 255
5.31445e-05 -0.00133928 0.00357973 255 255 255
-1.83756e-05 -0.00097926 0.00386383 255 255 255
4.42792e-05 -0.00135421 0.00352487 255 255 255
7.31934e-05 -0.00138451 0.00361619 255 255 255
5.07749e-05 -0.00135959 0.00355719 255 255 255
3.1324e-05 -0.00133007 0.00353045 255 255 255
6.92296e-05 -0.00133152 0.00363243 255 255 255
-5.90488e-05 -0.00131343 0.00356678 255 255 255
5.16483e-05 -0.0011906 0.00367993 255 255 255
9.67659e-05 -0.00120489 0.00384338 255 255 255
9.98105e-05 -0.00119221 0.00387299 255 255 255
3.7027e-05 -0.00114053 0.00372292 255 255 255
3.6699e-05 -0.00113188 0.00373227 255 255 255
3.1022e-05 -0.00112105 0.00376962 255 255 255
0.000114791 -0.00111238 0.00401823 255 255 255
0.000110025 -0.00110378 0.00400213 255 255 255
0.00010137 -0.00108088 0.00398007 255 255 255
9.0962e-07 -0.00148626 0.00349736 255 255 255
6.89258e-05 -0.00135818 0.00361393 255 255 255
7.1194e-05 -0.00135126 0.00362063 255 255 255
9.00868e-05 -0.00123321 0.00380206 255 255 255
9.01136e-05 -0.00121497 0.00381776 255 255 255
3.80539e-05 -0.00115025 0.00374103 255 255 255
5.9702e-05 -0.00139736 0.00355922 255 255 255
5.63003e-05 -0.00137284 0.0035068 255 255 255
5.13718e-05 -0.00135567 0.00355198 255 255 255
5.55734e-05 -0.00135788 0.0035812 255 255 255
-7.37168e-05 -0.00131654 0.00357994 255 255 255
6.122e-05 -0.00122452 0.00369787 255 255 255
3.54105e-05 -0.0011283 0.00374115 255 255 255
0.000102945 -0.00106757 0.00396271 255 255 255
1.19435e-05 -0.00149601 0.00346206 255 255 255
3.34599e-06 -0.0014882 0.00348787 255 255 255
3.79195e-05 -0.00114542 0.00372505 255 255 255
3.16557e-05 -0.00111929 0.00376533 255 255 255
0.000101099 -0.00109932 0.0039816 255 255 255
0.000105989 -0.00110097 0.00403105 255 255 255
0.000102006 -0.00108326 0.00398499 255 255 255
8.59818e-05 -0.0010549 0.00398941 255 255 255
4.15449e-05 -0.00134377 0.00351745 255 255 255
6.24989e-05 -0.00138027 0.00374653 255 255 255
2.95605e-05 -0.00131218 0.00353336 255 255 255
0.000370336 -0.00118828 0.00364466 255 255 255
-6.95321e-05 -0.00129027 0.00359181 255 255 255
6.61019e-05 -0.00118624 0.00365421 255 255 255
4.87733e-05 -0.0011707 0.00368246 255 255 255
2.77956e-05 -0.00107121 0.00379194 255 255 255
8.60013e-05 -0.00108178 0.00401173 255 255 255
-1.10923e-05 -0.00103365 0.00390734 255 255 255
1.68965e-05 -0.000906122 0.0038481 255 255 255
0.000176715 -0.00136286 0.0035293 255 255 255
-5.63033e-05 -0.00129648 0.00358184 255 255 255
0.000402722 -0.00119366 0.00361648 255 255 255
0.000102101 -0.00121751 0.00363292 255 255 255
0.000354302 -0.00115485 0.00365851 255 255 255
0.00031069 -0.00102505 0.0038154 255 255 255
0.000271082 -0.00101373 0.00383956 255 255 255
3.14256e-05 -0.0010447 0.00380036 255 255 255
3.13872e-05 -0.00103992 0.00380603 255 255 255
-2.00626e-05 -0.00152829 0.00348454 255 255 255
7.93756e-05 -0.00140926 0.00348906 255 255 255
6.89187e-05 -0.00140843 0.00349619 255 255 255
-2.66291e-05 -0.00132259 0.00355294 255 255 255
0.000204066 -0.00130304 0.00358061 255 255 255
0.000360753 -0.00117177 0.00364894 255 255 255
0.000325228 -0.00111347 0.00373193 255 255 255
0.000205646 -0.00105148 0.0038202 255 255 255
0.000286633 -0.00102097 0.00383232 255 255 255
8.90576e-05 -0.00150121 0.0034451 255 255 255
0.000106463 -0.00147332 0.00346619 255 255 255
5.36321e-05 -0.00145462 0.00346886 255 255 255
-5.71138e-05 -0.00133506 0.00355231 255 255 255
1.9107e-05 -0.00130142 0.00354155 255 255 255
9.2926e-05 -0.0012679 0.00359671 255 255 255
0.00038803 -0.00119718 0.00362408 255 255 255
0.000346521 -0.00117251 0.0036786 255 255 255
0.000357188 -0.00116303 0.00365415 255 255 255
0.000341408 -0.00112662 0.00369569 255 255 255
0.000157924 -0.00108029 0.00379571 255 255 255
0.000238925 -0.0010506 0.00382558 255 255 255
0.000317814 -0.0010315 0.00380286 255 255 255
1.46508e-05 -0.00103139 0.00387911 255 255 255
6.01319e-05 -0.00145928 0.00345863 255 255 255
7.6813e-05 -0.00145365 0.00345851 255 255 255
9.03438e-05 -0.00141801 0.00348073 255 255 255
-5.2669e-05 -0.00131634 0.00356661 255 255 255
8.8427e-05 -0.00124536 0.00362087 255 255 255
9.26104e-05 -0.00123407 0.00362466 255 255 255
8.27747e-05 -0.00119004 0.0036442 255 255 255
6.91395e-05 -0.00116618 0.00366632 255 255 255
0.000368505 -0.00117764 0.00363967 255 255 255
0.00036305 -0.00116779 0.00364544 255 255 255
0.000380396 -0.00116729 0.00363623 255 255 255
0.000363023 -0.00115313 0.00365783 255 255 255
0.000157244 -0.00110247 0.00377109 255 255 255
0.000330307 -0.00106803 0.00376483 255 255 255
-2.89922e-05 -0.00101383 0.00388139 255 255 255
0.000315343 -0.00102545 0.00380988 255 255 255
0.000245404 -0.00101234 0.00384621 255 255 255
0.000319711 -0.00101613 0.00381278 255 255 255
-1.05896e-05 -0.000971545 0.00386108 255 255 255
0.000240539 -0.00100142 0.00385809 255 255 255
0.000253317 -0.000994958 0.00386106 255 255 255
1.63493e-05 -0.00156166 0.00343537 255 255 255
0.000132127 -0.00145022 0.00346898 255 255 255
0.000107453 -0.00135239 0.00351082 255 255 255
3.60571e-05 -0.00129488 0.00354154 255 255 255
0.000116412 -0.00124797 0.00360737 255 255 255
0.000110392 -0.00120507 0.00363675 255 255 255
0.00038677 -0.00117454 0.00363197 255 255 255
0.0003429 -0.00116277 0.00367067 255 255 255
0.000359784 -0.00114638 0.00366432 255 255 255
0.000329796 -0.00113807 0.00370302 255 255 255
0.000186887 -0.00106465 0.0038058 255 255 255
0.000343082 -0.00108785 0.00373054 255 255 255
0.000186368 -0.00105056 0.00382123 255 255 255
0.00034321 -0.0010635 0.00375962 255 255 255
6.81906e-07 -0.00097474 0.0038582 255 255 255
0.000284373 -0.000992345 0.00384962 255 255 255
0.000148798 -0.000955758 0.00388846 255 255 255
0.000288961 -0.000984428 0.00385583 255 255 255
7.30991e-05 -0.00143045 0.0034775 255 255 255
-6.57286e-05 -0.00134001 0.00356714 255 255 255
0.00018495 -0.00135695 0.00353055 255 255 255
0.000149411 -0.00129252 0.00359316 255 255 255
0.000120724 -0.00127188 0.00358889 255 255 255
0.000100783 -0.00126499 0.00359463 255 255 255
0.000108519 -0.00124442 0.00360986 255 255 255
0.000128303 -0.00123946 0.00361518 255 255 255
0.000135191 -0.00123547 0.00362043 255 255 255
0.00037689 -0.0011681 0.00363795 255 255 255
0.000366504 -0.00115733 0.00365264 255 255 255
0.000197017 -0.00110677 0.0037731 255 255 255
0.000174871 -0.00106513 0.00380579 255 255 255
0.000329813 -0.00109908 0.00372875 255 255 255
4.23825e-05 -0.00100695 0.00383694 255 255 255
0.000196038 -0.00103059 0.00384023 255 255 255
0.00021894 -0.00103091 0.00383469 255 255 255
0.00026316 -0.00102954 0.00383613 255 255 255
0.000235971 -0.00101679 0.00384412 255 255 255
0.000320443 -0.00102196 0.00380805 255 255 255
0.000320006 -0.000993427 0.00383677 255 255 255
0.00029548 -0.000866287 0.00381661 255 255 255
8.92391e-05 -0.00144516 0.00346642 255 255 255
0.000102039 -0.00143996 0.0034728 255 255 255
8.17876e-05 -0.00142809 0.00347543 255 255 255
9.50502e-05 -0.00136844 0.00349383 255 255 255
0.0001278 -0.00137817 0.0035193 255 255 255
0.000139461 -0.00131618 0.00356562 255 255 255
0.00013816 -0.00118883 0.00365374 255 255 255
8.31679e-05 -0.00114493 0.00367809 255 255 255
7.17492e-05 -0.00113113 0.00369282 255 255 255
7.1012e-05 -0.00111621 0.00370892 255 255 255
0.000361839 -0.00118261 0.00364387 255 255 255
7.52875e-05 -0.00105853 0.0037899 255 255 255
0.000212564 -0.00111169 0.00376653 255 255 255
0.000359368 -0.00113313 0.0036745 255 255 255
0.000331895 -0.00112324 0.00369902 255 255 255
0.000356914 -0.00111786 0.00369635 255 255 255
0.000246366 -0.00108746 0.00380326 255 255 255
0.000243724 -0.0010679 0.00382567 255 255 255
0.000209304 -0.00103362 0.00383396 255 255 255
0.000239059 -0.00102417 0.00383939 255 255 255
0.000279144 -0.00102469 0.00383753 255 255 255
0.000300353 -0.00102627 0.00382188 255 255 255
0.000329376 -0.00100369 0.00382577 255 255 255
-4.14507e-05 -0.00133816 0.00356244 255 255 255
0.000110165 -0.001375 0.00350341 255 255 255
0.000103706 -0.00133525 0.00352224 255 255 255
0.000134724 -0.00121147 0.00363549 255 255 255
0.000115244 -0.00116125 0.00366494 255 255 255
0.000129888 -0.00115713 0.00368225 255 255 255
0.00011579 -0.00114597 0.00368343 255 255 255
0.00018185 -0.00114433 0.00373552 255 255 255
0.000373438 -0.00119438 0.00362911 255 255 255
0.000175206 -0.00111058 0.00376281 255 255 255
0.000231271 -0.0011221 0.00377446 255 255 255
0.000390288 -0.00116944 0.00363237 255 255 255
0.000345559 -0.00114727 0.0036701 255 255 255
4.4813e-05 -0.000981662 0.00386522 255 255 255
0.000253938 -0.0010109 0.00384566 255 255 255
0.000308319 -0.00101169 0.00382543 255 255 255
9.34753e-05 -0.00142205 0.00348004 255 255 255
0.000133228 -0.00135625 0.00353388 255 255 255
6.83064e-05 -0.00130659 0.00352895 255 255 255
0.000120954 -0.001322 0.00354617 255 255 255
0.000119512 -0.00130455 0.00355975 255 255 255
0.000135094 -0.00125555 0.00360725 255 255 255
0.000157957 -0.00126271 0.00362181 255 255 255
0.000143827 -0.00120568 0.00364488 255 255 255
0.000164273 -0.00121717 0.00365865 255 255 255
9.93563e-05 -0.00115685 0.00366635 255 255 255
0.000184748 -0.00120459 0.0036682 255 255 255
0.000157375 -0.00116668 0.00368948 255 255 255
0.000169491 -0.00115478 0.0037134 255 255 255
0.000194836 -0.00115964 0.00371272 255 255 255
0.000182625 -0.00111237 0.00376301 255 255 255
0.000196882 -0.0010739 0.00379978 255 255 255
0.000208918 -0.00108047 0.00379937 255 255 255
0.000215274 -0.00104828 0.00382163 255 255 255
0.000256494 -0.00105127 0.00381966 255 255 255
0.000247312 -0.00102064 0.00383979 255 255 255
0.000359981 -0.00105529 0.00376559 255 255 255
0.000103307 -0.0013574 0.00350318 255 255 255
0.000139712 -0.00139342 0.00352845 255 255 255
0.000130698 -0.00132434 0.00355132 255 255 255
0.000113354 -0.00126145 0.00359591 255 255 255
0.000136897 -0.00127305 0.00359678 255 255 255
0.000109089 -0.00116472 0.00366142 255 255 255
0.000149738 -0.00119358 0.00365702 255 255 255
0.000131649 -0.00115287 0.0036879 255 255 255
0.000176974 -0.00117419 0.00370229 255 255 255
7.19739e-05 -0.00108404 0.00375786 255 255 255
7.0237e-05 -0.00102944 0.00382178 255 255 255
1.54316e-05 -0.00091322 0.00385316 255 255 255
0.000365746 -0.00110233 0.00371229 255 255 255
0.000116016 -0.00137462 0.00350803 255 255 255
0.000150638 -0.00124999 0.00362329 255 255 255
0.000167915 -0.0012227 0.00365705 255 255 255
0.000163308 -0.0011836 0.00368041 255 255 255
0.000167326 -0.00118557 0.00368449 255 255 255
0.00016607 -0.00116404 0.00370187 255 255 255
7.55496e-05 -0.0010701 0.0037812 255 255 255
-2.31577e-05 -0.000985376 0.00385675 255 255 255
1.11911e-05 -0.000968139 0.003874 255 255 255
0.000100168 -0.00134062 0.00351305 255 255 255
0.000124103 -0.00136574 0.00352059 255 255 255
0.000142871 -0.00128755 0.00359298 255 255 255
0.000143031 -0.00122998 0.00362607 255 255 255
0.000142293 -0.00121902 0.00363634 255 255 255
0.000152212 -0.0012119 0.00364806 255 255 255
0.000157639 -0.00120962 0.00365601 255 255 255
0.000369755 -0.00105972 0.00376997 255 255 255
0.00011931 -0.00140853 0.00349478 255 255 255
0.000197097 -0.00120745 0.00369353 255 255 255
2.18943e-05 -0.00156025 0.00343746 255 255 255
0.000107188 -0.00146866 0.00346998 255 255 255
0.000102932 -0.00148055 0.00347882 255 255 255
0.000107505 -0.00147188 0.00348574 255 255 255
0.000139536 -0.00141561 0.00355515 255 255 255
0.000140752 -0.00142013 0.00356629 255 255 255
0.000136413 -0.00142675 0.00357984 255 255 255
0.000155844 -0.00133988 0.00363929 255 255 255
0.000178306 -0.00127626 0.0036307 255 255 255
0.000172298 -0.00129115 0.00364429 255 255 255
6.21159e-05 -0.00133876 0.003782 255 255 255
0.000182731 -0.00125364 0.00369206 255 255 255
0.000181943 -0.00125955 0.00369786 255 255 255
0.000187892 -0.00121633 0.00372946 255 255 255
0.000167516 -0.00125642 0.00377633 255 255 255
0.000193688 -0.00117588 0.00376373 255 255 255
0.000155018 -0.00116607 0.00389177 255 255 255
0.000156578 -0.00115918 0.00389799 255 255 255
0.000366031 -0.000969074 0.00390735 255 255 255
