ply
format ascii 1.0
element vertex 1045
property float x
property float y
property float z
property uchar red
property uchar green
property uchar blue
end_header
0.000306422 -0.00354295 0.01263 255 255 255
-8.19412e-05 -0.00345202 0.0124471 255 255 255
-2.56289e-05 -0.00349689 0.0124942 255 255 255
2.46689e-05 -0.00342916 0.0125314 255 255 255
0.00035339 -0.00363761 0.0128525 255 255 255
9.02864e-05 -0.00514132 0.010916 255 255 255
9.3326e-05 -0.00512856 0.0109336 255 255 255
7.23032e-05 -0.00513353 0.0109358 255 255 255
1.00952e-05 -0.00509112 0.0109473 255 255 255
-8.72361e-06 -0.00511067 0.0109755 255 255 255
-8.43707e-06 -0.00509687 0.0109911 255 255 255
3.40019e-05 -0.00513828 0.0110301 255 255 255
2.894e-06 -0.00514366 0.0110379 255 255 255
-3.42108e-05 -0.00506255 0.0110037 255 255 255
-5.34987e-05 -0.00513547 0.0110925 255 255 255
0.00024446 -0.0049217 0.0111397 255 255 255
-7.44739e-05 -0.00511123 0.0111179 255 255 255
-8.57615e-05 -0.00510004 0.011125 255 255 255
-4.39387e-05 -0.00508274 0.0111797 255 255 255
0.000308434 -0.00478871 0.0112486 255 255 255
0.000218552 -0.0048361 0.0112506 255 255 255
0.00033151 -0.00475335 0.0113195 255 255 255
-1.1459e-07 -0.00494268 0.0112464 255 255 255
0.000400437 -0.00472392 0.0113724 255 255 255
0.000205505 -0.00475365 0.0113177 255 255 255
0.000323917 -0.00475126 0.0113999 255 255 255
0.000313269 -0.00474492 0.0114028 255 255 255
9.60727e-05 -0.00454332 0.0112348 255 255 255
9.64153e-05 -0.00451331 0.011264 255 255 255
0.000242647 -0.00469073 0.0114222 255 255 255
5.41805e-05 -0.00448682 0.0112685 255 255 255
8.41173e-05 -0.00447893 0.0112907 255 255 255
0.000270032 -0.00469599 0.0114715 255 255 255
7.03251e-05 -0.00445674 0.0112986 255 255 255
8.04197e-05 -0.00446857 0.0113066 255 255 255
0.000279586 -0.00468723 0.0114894 255 255 255
9.12908e-05 -0.00446417 0.0113298 255 255 255
0.000314769 -0.00462713 0.0115657 255 255 255
0.000404898 -0.00463433 0.0116314 255 255 255
3.51092e-06 -0.00439906 0.0113737 255 255 255
0.000183938 -0.00454588 0.0115363 255 255 255
0.000113719 -0.00441621 0.0114696 255 255 255
0.000203652 -0.00449909 0.011569 255 255 255
0.000407411 -0.00441889 0.0116612 255 255 255
0.000290141 -0.00447907 0.0116371 255 255 255
0.000150116 -0.00438632 0.0115399 255 255 255
0.000406017 -0.00440946 0.0116752 255 255 255
-0.00023152 -0.00446859 0.0114021 255 255 255
0.000156311 -0.00437199 0.0115562 255 255 255
0.000212871 -0.0044494 0.0116158 255 255 255
0.00016497 -0.00437804 0.0115722 255 255 255
-0.000236758 -0.00448046 0.0114209 255 255 255
0.000397326 -0.00439143 0.0117058 255 255 255
0.000306139 -0.00442224 0.0116793 255 255 255
-0.000246704 -0.00448686 0.0114519 255 255 255
0.000205862 -0.00440721 0.0116408 255 255 255
0.000431714 -0.00431353 0.0117615 255 255 255
0.000288077 -0.00438323 0.0117216 255 255 255
0.000181404 -0.00432995 0.0116681 255 255 255
0.000433308 -0.00430758 0.0117918 255 255 255
0.00017008 -0.00430361 0.0116694 255 255 255
-0.000271789 -0.00438639 0.0114814 255 255 255
0.00040762 -0.00430442 0.0117891 255 255 255
0.00018453 -0.00432013 0.0116899 255 255 255
0.000355715 -0.00432387 0.0117859 255 255 255
0.000294873 -0.00434239 0.0117794 255 255 255
0.000266543 -0.00425871 0.011872 255 255 255
0.000214231 -0.00419202 0.0119045 255 255 255
0.000216296 -0.00447264 0.0120602 255 255 255
0.00032965 -0.00416832 0.0121027 255 255 255
0.000386125 -0.0041419 0.0121334 255 255 255
5.85661e-05 -0.00388767 0.0119022 255 255 255
3.99377e-05 -0.00385692 0.0119163 255 255 255
0.000296558 -0.00411415 0.0121457 255 255 255
4.3699e-05 -0.0038497 0.0119447 255 255 255
4.90622e-05 -0.00384864 0.0119742 255 255 255
0.000313796 -0.0040558 0.0122233 255 255 255
0.000337265 -0.00404296 0.0122342 255 255 255
7.15697e-05 -0.00375794 0.0120984 255 255 255
0.00030488 -0.00395525 0.0122953 255 255 255
0.000409954 -0.00385237 0.0124741 255 255 255
2.21507e-05 -0.00327055 0.0123469 255 255 255
1.3271e-05 -0.00329765 0.0123739 255 255 255
-3.90299e-05 -0.00349345 0.0124327 255 255 255
-6.57382e-05 -0.00349919 0.0124187 255 255 255
0.000437109 -0.00365993 0.0127996 255 255 255
0.000330071 -0.00363253 0.012752 255 255 255
0.000299256 -0.00361562 0.0127353 255 255 255
0.000410013 -0.00366023 0.0128152 255 255 255
-0.000137105 -0.00333177 0.0124186 255 255 255
0.000284775 -0.00360219 0.012739 255 255 255
0.000264265 -0.00351932 0.0127219 255 255 255
0.000311186 -0.00359599 0.012815 255 255 255
4.67703e-05 -0.00514548 0.0109061 255 255 255
0.000198573 -0.00506251 0.0109481 255 255 255
4.9594e-06 -0.00513069 0.0109349 255 255 255
5.33949e-05 -0.00514727 0.0110242 255 255 255
3.22801e-05 -0.00514148 0.0110464 255 255 255
0.000105291 -0.00508589 0.0111297 255 255 255
-5.42045e-05 -0.00513816 0.0110768 255 255 255
0.000274651 -0.00477186 0.0113079 255 255 255
0.000171723 -0.00455231 0.0111442 255 255 255
0.000381676 -0.00472676 0.0113449 255 255 255
-2.14408e-05 -0.00489556 0.0112554 255 255 255
-1.48338e-05 -0.00490365 0.0112697 255 255 255
0.000238248 -0.00473506 0.0113451 255 255 255
8.92342e-05 -0.00454348 0.0112553 255 255 255
0.000145679 -0.00463075 0.0113555 255 255 255
8.79987e-05 -0.00448704 0.0112753 255 255 255
0.000326287 -0.00468682 0.0115065 255 255 255
0.000302638 -0.00464578 0.0115306 255 255 255
0.000243919 -0.00461541 0.0115277 255 255 255
7.23318e-05 -0.00439399 0.0113592 255 255 255
0.000128295 -0.00450207 0.0114478 255 255 255
0.000120727 -0.00448231 0.0114368 255 255 255
6.46887e-05 -0.00438675 0.0113698 255 255 255
0.000178059 -0.0045455 0.0115112 255 255 255
4.68262e-05 -0.004386 0.0113684 255 255 255
0.000103015 -0.00440443 0.0114161 255 255 255
0.000228937 -0.004544 0.011565 255 255 255
0.00018562 -0.0045183 0.0115274 255 255 255
0.00037038 -0.00457263 0.0116626 255 255 255
4.03104e-05 -0.004359 0.0113912 255 255 255
0.000177507 -0.00451752 0.0115492 255 255 255
0.000155574 -0.00443375 0.0115044 255 255 255
0.000304594 -0.00449038 0.011624 255 255 255
0.000156144 -0.00441961 0.0115286 255 255 255
0.000221817 -0.00447803 0.0116072 255 255 255
0.000209921 -0.00446781 0.0115974 255 255 255
-0.00014303 -0.00440867 0.011383 255 255 255
0.000301112 -0.00445396 0.0116766 255 255 255
0.000279188 -0.00443889 0.0116728 255 255 255
-0.000187208 -0.0044577 0.0114081 255 255 255
0.000428749 -0.00434651 0.0117258 255 255 255
0.000223297 -0.004415 0.011653 255 255 255
0.00014236 -0.00432274 0.0115605 255 255 255
-0.000696831 -0.00537052 0.0115653 255 255 255
0.00026795 -0.00441276 0.0116978 255 255 255
0.000228549 -0.00440262 0.0116692 255 255 255
-0.000220574 -0.00452027 0.011459 255 255 255
0.000213234 -0.00434232 0.0116893 255 255 255
0.000209468 -0.00431969 0.0117406 255 255 255
0.000205933 -0.00429692 0.0117446 255 255 255
0.000155538 -0.00423515 0.0116844 255 255 255
-0.000274547 -0.00443378 0.0115301 255 255 255
0.000248499 -0.00429368 0.0118099 255 255 255
0.000194223 -0.00453635 0.011898 255 255 255
0.000223273 -0.00453621 0.0119219 255 255 255
0.000242886 -0.00454068 0.0119617 255 255 255
0.000241295 -0.00423962 0.0118668 255 255 255
0.00073834 -0.00354554 0.011876 255 255 255
0.000210304 -0.00448866 0.0120177 255 255 255
0.000381463 -0.0041912 0.0120505 255 255 255
0.000204363 -0.00411929 0.011941 255 255 255
0.000308891 -0.00415016 0.0121052 255 255 255
5.53726e-05 -0.00390403 0.0118482 255 255 255
5.48424e-05 -0.00390211 0.0118745 255 255 255
0.000306053 -0.00412879 0.0121297 255 255 255
0.000359982 -0.00407122 0.0122296 255 255 255
0.000347129 -0.00406265 0.0122279 255 255 255
0.000354359 -0.00404193 0.0122549 255 255 255
0.000345684 -0.0040416 0.0122474 255 255 255
0.000278846 -0.00398364 0.0121981 255 255 255
2.44508e-05 -0.00378432 0.0119659 255 255 255
0.000363633 -0.0039905 0.0123064 255 255 255
2.10167e-05 -0.00377062 0.0120217 255 255 255
2.80242e-05 -0.00374739 0.0120156 255 255 255
0.000365757 -0.00397121 0.0123341 255 255 255
0.000377002 -0.00380762 0.0122927 255 255 255
-4.42582e-06 -0.0037074 0.0120313 255 255 255
0.000415219 -0.00381662 0.012502 255 255 255
0.000365165 -0.0038315 0.0124721 255 255 255
0.000361199 -0.00376119 0.0125166 255 255 255
0.000503604 -0.0036302 0.0126925 255 255 255
2.36863e-05 -0.0035198 0.0123357 255 255 255
0.000456126 -0.00367148 0.0127464 255 255 255
3.15508e-05 -0.00348987 0.0123932 255 255 255
0.000408473 -0.0036755 0.0127912 255 255 255
0.00029769 -0.00349969 0.0126643 255 255 255
-2.57357e-05 -0.0035094 0.0124547 255 255 255
0.000407329 -0.00366358 0.0128268 255 255 255
6.70832e-05 -0.00507889 0.0109228 255 255 255
1.29591e-05 -0.00514217 0.010967 255 255 255
4.19529e-05 -0.00505736 0.0109299 255 255 255
3.71017e-05 -0.00513632 0.0110305 255 255 255
-1.57696e-05 -0.00511598 0.0110167 255 255 255
-5.85457e-05 -0.00506168 0.0110502 255 255 255
3.16136e-05 -0.00509916 0.0111604 255 255 255
-7.78578e-05 -0.00511009 0.0111036 255 255 255
8.99244e-05 -0.00482888 0.0110805 255 255 255
-8.26562e-05 -0.00508878 0.0111582 255 255 255
0.000183525 -0.00464308 0.011131 255 255 255
1.60215e-05 -0.00494482 0.0112426 255 255 255
0.000379032 -0.00473417 0.0113622 255 255 255
0.000162402 -0.00461453 0.0111766 255 255 255
0.000136026 -0.00457824 0.0111771 255 255 255
0.000139251 -0.00456301 0.0111682 255 255 255
0.000213733 -0.00472092 0.0113578 255 255 255
0.000267298 -0.00471696 0.0114451 255 255 255
0.000250026 -0.00470523 0.0114396 255 255 255
0.000306675 -0.00469729 0.0114791 255 255 255
0.000101865 -0.00456943 0.0112829 255 255 255
9.64135e-05 -0.00450293 0.0112518 255 255 255
0.000294438 -0.00467639 0.0114879 255 255 255
0.000197014 -0.00465459 0.0114097 255 255 255
0.00014385 -0.00460645 0.0113596 255 255 255
0.000199204 -0.00463888 0.0114364 255 255 255
0.000292109 -0.00464375 0.0115191 255 255 255
0.000215445 -0.00463692 0.0114797 255 255 255
0.000105496 -0.0044751 0.0113248 255 255 255
0.000346122 -0.00463585 0.0115884 255 255 255
0.000349269 -0.00462052 0.0116008 255 255 255
9.56476e-05 -0.0044558 0.0113535 255 255 255
9.7046e-05 -0.0044237 0.0113571 255 255 255
0.00033227 -0.00460354 0.011629 255 255 255
0.000103329 -0.00445545 0.0113971 255 255 255
1.13512e-05 -0.00439565 0.01134 255 255 255
-8.24293e-06 -0.00439747 0.0113253 255 255 255
0.000184175 -0.00449206 0.0115282 255 255 255
0.000243106 -0.00451713 0.0116033 255 255 255
0.000277089 -0.00446982 0.0116291 255 255 255
0.000123472 -0.00438575 0.0114802 255 255 255
0.000249332 -0.00445973 0.0116279 255 255 255
0.000133009 -0.00432901 0.0114923 255 255 255
0.000144247 -0.00435903 0.0115231 255 255 255
0.000137084 -0.00434905 0.0115154 255 255 255
-9.46689e-05 -0.0044054 0.0113939 255 255 255
0.00019912 -0.0044153 0.0116072 255 255 255
0.000157799 -0.00437497 0.0115592 255 255 255
0.000126223 -0.00432412 0.0115073 255 255 255
0.000335753 -0.00451569 0.0117806 255 255 255
0.000207967 -0.00440786 0.0116351 255 255 255
0.000146109 -0.00436176 0.0115573 255 255 255
0.00013253 -0.00431729 0.0115301 255 255 255
0.000328848 -0.00453912 0.0118108 255 255 255
0.000260705 -0.00440783 0.0116866 255 255 255
0.000180524 -0.00436594 0.0116161 255 255 255
0.000387935 -0.00452575 0.0118538 255 255 255
0.000314816 -0.0045405 0.0118191 255 255 255
0.000140227 -0.00428975 0.0115705 255 255 255
-0.000226788 -0.00447305 0.0114179 255 255 255
0.00017085 -0.00431952 0.0116342 255 255 255
0.000365218 -0.00450591 0.0118933 255 255 255
0.000265185 -0.00435926 0.0117327 255 255 255
0.000228704 -0.00434102 0.0117007 255 255 255
-0.000269822 -0.00445419 0.0114354 255 255 255
0.000139705 -0.00424016 0.0116076 255 255 255
0.000284182 -0.00433959 0.0117779 255 255 255
-6.60034e-06 -0.00431286 0.011556 255 255 255
0.000242199 -0.00432748 0.0117481 255 255 255
0.000194556 -0.00429733 0.011697 255 255 255
0.000131745 -0.0042208 0.0116141 255 255 255
0.000187976 -0.00431087 0.0117258 255 255 255
0.00016067 -0.00422346 0.0116729 255 255 255
0.000140958 -0.00420718 0.0116638 255 255 255
0.000235875 -0.00429842 0.0117895 255 255 255
-0.000283427 -0.00439739 0.0114823 255 255 255
0.000213896 -0.0042869 0.011783 255 255 255
0.000264925 -0.00428483 0.0118228 255 255 255
0.000175415 -0.00425539 0.0117411 255 255 255
0.000137853 -0.00419832 0.0116778 255 255 255
-0.000248529 -0.00433898 0.0115054 255 255 255
0.000269941 -0.00453238 0.0119903 255 255 255
0.00021157 -0.00426331 0.0117976 255 255 255
0.000136848 -0.00416976 0.0116898 255 255 255
0.000187839 -0.00451407 0.011976 255 255 255
0.000217986 -0.00424761 0.0118476 255 255 255
0.000148889 -0.00408399 0.011703 255 255 255
0.000202115 -0.00421347 0.0118289 255 255 255
0.00014988 -0.00416243 0.0117638 255 255 255
0.000186924 -0.00419516 0.0118219 255 255 255
0.000148859 -0.00406346 0.0117193 255 255 255
-0.000290679 -0.00435757 0.0115692 255 255 255
0.000130918 -0.00410908 0.01174 255 255 255
0.000186823 -0.00421153 0.011843 255 255 255
0.000358563 -0.00424915 0.0119988 255 255 255
0.000134596 -0.00407668 0.0117388 255 255 255
0.000291717 -0.004207 0.0119274 255 255 255
0.00013928 -0.00414567 0.0117827 255 255 255
0.000158465 -0.00414455 0.0118107 255 255 255
0.000246958 -0.00418942 0.0119139 255 255 255
0.000215727 -0.00445887 0.0120532 255 255 255
0.00015588 -0.00414557 0.011835 255 255 255
0.000182752 -0.00416829 0.011879 255 255 255
0.000171426 -0.00415245 0.0118568 255 255 255
0.000243109 -0.00442035 0.0120998 255 255 255
0.00013164 -0.00403905 0.0118039 255 255 255
0.000251337 -0.00415178 0.0119548 255 255 255
0.000157985 -0.00408723 0.0118902 255 255 255
0.000103891 -0.00399006 0.0117991 255 255 255
0.000136707 -0.00401647 0.0118425 255 255 255
0.000209494 -0.00410595 0.0119554 255 255 255
0.000213119 -0.00410657 0.01197 255 255 255
0.000287953 -0.00416331 0.0120664 255 255 255
0.000278539 -0.00413543 0.0120657 255 255 255
0.00014266 -0.00395828 0.0118748 255 255 255
0.000265321 -0.00409742 0.0120471 255 255 255
6.41685e-05 -0.0038584 0.0117746 255 255 255
0.000306075 -0.00372872 0.0118908 255 255 255
0.000271199 -0.00411166 0.0121055 255 255 255
0.000314229 -0.00410791 0.0121485 255 255 255
0.000108279 -0.00376472 0.0118346 255 255 255
0.000267584 -0.00405893 0.0121241 255 255 255
0.000288663 -0.00406929 0.0121662 255 255 255
4.35711e-05 -0.00384843 0.0118654 255 255 255
0.000105452 -0.00390076 0.0119492 255 255 255
4.49261e-05 -0.00383623 0.0119012 255 255 255
8.63288e-05 -0.00386898 0.0119739 255 255 255
0.000344104 -0.00402935 0.0122649 255 255 255
0.000307743 -0.00401562 0.0122337 255 255 255
0.000416191 -0.00396257 0.0123267 255 255 255
0.000351219 -0.00398231 0.0122991 255 255 255
4.3639e-05 -0.00380068 0.0119849 255 255 255
3.09802e-05 -0.00379398 0.0119857 255 255 255
4.44245e-05 -0.00379781 0.0120323 255 255 255
2.13296e-05 -0.00375213 0.0119957 255 255 255
1.37442e-05 -0.00371367 0.0119674 255 255 255
2.2921e-06 -0.00373778 0.0120174 255 255 255
0.000411331 -0.00383919 0.0124851 255 255 255
0.000316961 -0.00385304 0.0124296 255 255 255
2.045e-05 -0.0036582 0.0121541 255 255 255
9.27555e-06 -0.00363972 0.0121682 255 255 255
0.000366876 -0.00374479 0.0125347 255 255 255
0.000391915 -0.00369283 0.0125946 255 255 255
0.000349309 -0.00375143 0.012603 255 255 255
1.70472e-05 -0.00356285 0.0122665 255 255 255
0.000413683 -0.00367107 0.0126439 255 255 255
-4.8321e-06 -0.00348517 0.0122158 255 255 255
0.000381156 -0.00358078 0.0126093 255 255 255
0.000406459 -0.00363206 0.0126849 255 255 255
0.000387701 -0.00359628 0.01265 255 255 255
0.000373572 -0.00366355 0.0127424 255 255 255
0.000324508 -0.00361971 0.0126846 255 255 255
0.000327659 -0.00365101 0.0127196 255 255 255
0.000310388 -0.00349544 0.0126508 255 255 255
0.000315515 -0.00361516 0.0127448 255 255 255
7.2688e-06 -0.00344603 0.0124116 255 255 255
-3.55637e-05 -0.00349729 0.0124281 255 255 255
-2.80228e-05 -0.00333403 0.0123433 255 255 255
0.000336515 -0.00360345 0.012796 255 255 255
-7.75685e-06 -0.0033639 0.0123843 255 255 255
0.000292387 -0.00360994 0.0127691 255 255 255
0.00029008 -0.0035241 0.012731 255 255 255
0.000302591 -0.00343806 0.0127013 255 255 255
-7.8933e-05 -0.00339264 0.0123695 255 255 255
-8.91003e-05 -0.0034432 0.0124393 255 255 255
-4.93302e-05 -0.00350362 0.0124986 255 255 255
-9.2659e-05 -0.00345179 0.0124575 255 255 255
-6.3175e-05 -0.00348982 0.0125171 255 255 255
-9.11786e-05 -0.00308893 0.0123271 255 255 255
6.99795e-05 -0.00515162 0.0109696 255 255 255
3.64453e-05 -0.00514422 0.0109611 255 255 255
9.56203e-05 -0.00503931 0.0109287 255 255 255
1.60666e-05 -0.00509819 0.0109745 255 255 255
0.000111728 -0.00513272 0.0110778 255 255 255
-9.04023e-06 -0.00511771 0.0110048 255 255 255
-3.52342e-05 -0.00509584 0.0110162 255 255 255
-6.28326e-05 -0.00513203 0.0110731 255 255 255
9.24432e-05 -0.00483517 0.011065 255 255 255
-8.61813e-05 -0.00507927 0.011124 255 255 255
-6.33859e-05 -0.00503248 0.0111008 255 255 255
3.95632e-07 -0.00494038 0.0111136 255 255 255
0.000213428 -0.00456994 0.0111385 255 255 255
0.000167019 -0.00459707 0.011153 255 255 255
0.00036189 -0.00473427 0.0114422 255 255 255
0.000139062 -0.00465783 0.0112852 255 255 255
0.000216695 -0.00453089 0.0113095 255 255 255
0.000435611 -0.00465394 0.0115766 255 255 255
0.000291718 -0.00469028 0.0114952 255 255 255
8.22388e-05 -0.00448934 0.0112317 255 255 255
6.92011e-05 -0.00449531 0.0112483 255 255 255
5.05657e-05 -0.00446917 0.0112158 255 255 255
9.31346e-05 -0.00451765 0.0112813 255 255 255
0.000103835 -0.00451668 0.0113368 255 255 255
0.000214306 -0.00461199 0.0115008 255 255 255
0.000375562 -0.00462082 0.0116449 255 255 255
4.72539e-05 -0.00445932 0.0112703 255 255 255
0.000337638 -0.00460145 0.011614 255 255 255
0.000373033 -0.00459814 0.0116513 255 255 255
9.76588e-05 -0.00445219 0.011333 255 255 255
0.000225771 -0.00459113 0.0115386 255 255 255
0.000121079 -0.0045019 0.0114056 255 255 255
0.000187504 -0.00455404 0.0115106 255 255 255
0.000368921 -0.00454913 0.0116627 255 255 255
0.000374614 -0.00458498 0.0116935 255 255 255
3.86647e-05 -0.00442445 0.0113191 255 255 255
0.00011997 -0.00447409 0.0114286 255 255 255
0.000356317 -0.00457189 0.0117246 255 255 255
0.000224148 -0.00453135 0.0115762 255 255 255
7.92525e-05 -0.00439078 0.0113552 255 255 255
0.000150382 -0.00449503 0.0115053 255 255 255
0.00015647 -0.00446819 0.011503 255 255 255
0.000128409 -0.00441747 0.011482 255 255 255
0.000112905 -0.00439191 0.0114436 255 255 255
0.000191902 -0.00443718 0.0115597 255 255 255
0.000340504 -0.00452783 0.0117548 255 255 255
0.000202348 -0.00443634 0.0115819 255 255 255
0.000337497 -0.0045642 0.0117861 255 255 255
0.000242543 -0.00444741 0.0116483 255 255 255
0.000232158 -0.00443589 0.0116458 255 255 255
0.000311222 -0.00451781 0.0118004 255 255 255
-0.00015382 -0.00443412 0.0113916 255 255 255
0.000233371 -0.00438906 0.0116838 255 255 255
0.000151122 -0.00433646 0.0115963 255 255 255
0.000235428 -0.00435679 0.0117095 255 255 255
0.000184952 -0.00434083 0.0116456 255 255 255
-0.000244566 -0.00446929 0.011398 255 255 255
-0.000221857 -0.00452055 0.0114594 255 255 255
0.000197745 -0.0043327 0.0116875 255 255 255
0.000253585 -0.00434249 0.01175 255 255 255
0.000249121 -0.0045442 0.0119071 255 255 255
0.000168323 -0.00428115 0.0116464 255 255 255
0.000194675 -0.00430972 0.0117118 255 255 255
0.000165311 -0.00427926 0.011682 255 255 255
0.000251564 -0.00431335 0.0117831 255 255 255
0.000155242 -0.00424007 0.011656 255 255 255
0.000190526 -0.00427885 0.0117478 255 255 255
0.000183204 -0.00450137 0.0119242 255 255 255
0.00016389 -0.00423242 0.011722 255 255 255
0.000149608 -0.00421322 0.0117041 255 255 255
0.000188383 -0.00424438 0.0117661 255 255 255
0.000189256 -0.00425721 0.0117763 255 255 255
0.000173049 -0.00424031 0.0117587 255 255 255
0.000188334 -0.00423933 0.0117914 255 255 255
0.000149841 -0.00419512 0.011725 255 255 255
0.000159684 -0.0042082 0.0117467 255 255 255
0.000163262 -0.00421878 0.0117671 255 255 255
0.000214067 -0.00423742 0.0118424 255 255 255
0.00016466 -0.00420657 0.0117845 255 255 255
0.000162242 -0.00419039 0.011803 255 255 255
0.000157425 -0.00416326 0.0117847 255 255 255
0.000279314 -0.00443963 0.012099 255 255 255
0.000149343 -0.00413539 0.0117676 255 255 255
0.000226735 -0.00444624 0.0120696 255 255 255
0.000176227 -0.00418682 0.0118363 255 255 255
0.000195041 -0.00418798 0.0118683 255 255 255
0.000162699 -0.00416607 0.0118216 255 255 255
0.000267264 -0.00418284 0.0119344 255 255 255
0.000123944 -0.00396059 0.0116506 255 255 255
0.00013628 -0.00412337 0.01179 255 255 255
0.000274346 -0.00417553 0.0119753 255 255 255
0.000139978 -0.00405076 0.0117761 255 255 255
0.000133717 -0.00402045 0.0117805 255 255 255
9.60484e-05 -0.00396583 0.0117127 255 255 255
0.000164559 -0.00406781 0.0118852 255 255 255
0.000132628 -0.00400197 0.0118145 255 255 255
0.000157454 -0.0040347 0.0119058 255 255 255
0.000338122 -0.00413468 0.0121437 255 255 255
7.42028e-05 -0.00387169 0.0117638 255 255 255
0.00036848 -0.00392346 0.0120698 255 255 255
0.000112218 -0.003952 0.0118701 255 255 255
7.05513e-05 -0.00394086 0.0118371 255 255 255
5.04494e-05 -0.00391742 0.0118126 255 255 255
0.000133469 -0.00377863 0.0117867 255 255 255
0.000295206 -0.0040974 0.0121636 255 255 255
0.000319835 -0.00408294 0.0121964 255 255 255
7.60811e-05 -0.00393166 0.011874 255 255 255
6.02617e-05 -0.00388698 0.0118285 255 255 255
5.87122e-05 -0.00384935 0.0118018 255 255 255
5.07127e-05 -0.00386357 0.0118136 255 255 255
0.000275654 -0.00404683 0.0121558 255 255 255
0.000139636 -0.00390685 0.0119462 255 255 255
5.15103e-05 -0.00389381 0.0118725 255 255 255
0.000275325 -0.00396598 0.0122165 255 255 255
0.000338188 -0.00397297 0.0123278 255 255 255
0.000100557 -0.00382322 0.0120206 255 255 255
3.40699e-05 -0.0038011 0.0119507 255 255 255
0.000373739 -0.00381441 0.0122623 255 255 255
0.000342504 -0.00393999 0.0123527 255 255 255
2.46833e-05 -0.00374962 0.0119523 255 255 255
0.000340082 -0.00391643 0.0123744 255 255 255
3.97689e-05 -0.00378531 0.0120158 255 255 255
0.000314801 -0.00390594 0.012371 255 255 255
0.00013146 -0.00374886 0.012089 255 255 255
5.39379e-05 -0.00363854 0.0120082 255 255 255
-1.88062e-05 -0.00370169 0.012079 255 255 255
9.77643e-06 -0.0036375 0.0121243 255 255 255
6.1647e-06 -0.00362621 0.0121154 255 255 255
2.86435e-05 -0.00364142 0.0121993 255 255 255
0.000409966 -0.00369275 0.0126052 255 255 255
-1.86354e-05 -0.00354697 0.012154 255 255 255
6.79262e-05 -0.00345928 0.0121706 255 255 255
1.84676e-05 -0.00358602 0.0122395 255 255 255
3.92259e-06 -0.0035711 0.0122186 255 255 255
9.6385e-05 -0.00354532 0.0123245 255 255 255
5.04801e-06 -0.00352113 0.0122727 255 255 255
0.000359649 -0.00364897 0.0127262 255 255 255
0.000309348 -0.00356276 0.0126436 255 255 255
7.31316e-05 -0.00348829 0.0123776 255 255 255
-5.44848e-06 -0.00347069 0.0123199 255 255 255
0.000386854 -0.00364858 0.0128545 255 255 255
0.000106315 -0.00344785 0.0124446 255 255 255
0.000295173 -0.00354912 0.0127188 255 255 255
6.41296e-05 -0.00345354 0.0124421 255 255 255
0.000426994 -0.00355477 0.0128861 255 255 255
-1.42987e-06 -0.00345001 0.0123912 255 255 255
8.77077e-05 -0.00328259 0.0123683 255 255 255
0.000116156 -0.0028601 0.0120792 255 255 255
-1.82495e-05 -0.00339004 0.0123462 255 255 255
0.000271171 -0.00352597 0.0127179 255 255 255
0.000257051 -0.00349083 0.0127213 255 255 255
0.000226659 -0.00349783 0.0127257 255 255 255
-7.37916e-05 -0.00346584 0.0124335 255 255 255
-7.36543e-06 -0.00348948 0.0125222 255 255 255
-0.000109167 -0.00343274 0.0124644 255 255 255
-8.57117e-05 -0.00343105 0.0125202 255 255 255
5.60619e-05 -0.00504109 0.0109303 255 255 255
3.4908e-05 -0.005146 0.0110369 255 255 255
-9.5129e-06 -0.00510573 0.0109895 255 255 255
2.62017e-06 -0.00513964 0.0110402 255 255 255
-5.34042e-05 -0.0050545 0.0109882 255 255 255
-3.46812e-05 -0.00508212 0.0110391 255 255 255
-3.77756e-05 -0.00512091 0.011097 255 255 255
-6.96947e-05 -0.00510874 0.0110749 255 255 255
0.000136161 -0.00485086 0.0110249 255 255 255
-7.6458e-06 -0.0049737 0.0110562 255 255 255
0.000266577 -0.00473787 0.0110655 255 255 255
-7.07683e-05 -0.00503686 0.0111133 255 255 255
-8.4559e-06 -0.00493468 0.0111436 255 255 255
0.000103153 -0.00480675 0.0111544 255 255 255
0.000182629 -0.00464387 0.0111335 255 255 255
0.000203026 -0.00459606 0.0111342 255 255 255
0.000143335 -0.00466329 0.0111753 255 255 255
0.000156164 -0.00459331 0.0111568 255 255 255
0.000198944 -0.00455188 0.0111586 255 255 255
0.000157828 -0.00471782 0.0113 255 255 255
0.000142946 -0.00456336 0.0111623 255 255 255
0.000184435 -0.00469341 0.0113561 255 255 255
0.00111093 -0.00382902 0.0113864 255 255 255
0.000166229 -0.00467709 0.0113568 255 255 255
0.000316871 -0.00466524 0.0115312 255 255 255
0.000101807 -0.00453978 0.0112443 255 255 255
8.85342e-05 -0.00450453 0.0112054 255 255 255
0.000320285 -0.00465319 0.01155 255 255 255
0.000100822 -0.004525 0.0112655 255 255 255
0.0004461 -0.00461429 0.0116526 255 255 255
0.000332447 -0.00463183 0.011576 255 255 255
4.04948e-05 -0.004509 0.0112026 255 255 255
0.00104798 -0.00380379 0.0114475 255 255 255
9.13004e-05 -0.00449781 0.0112574 255 255 255
9.41533e-05 -0.00449674 0.0112862 255 255 255
5.88698e-05 -0.00444368 0.0112175 255 255 255
0.000345712 -0.00456748 0.0116273 255 255 255
6.74256e-05 -0.00441051 0.0112347 255 255 255
0.00101256 -0.00375068 0.0114964 255 255 255
0.00105708 -0.00370899 0.0114854 255 255 255
5.99765e-05 -0.00441317 0.0112492 255 255 255
2.88866e-05 -0.00444616 0.0112663 255 255 255
0.000374153 -0.00458795 0.0117181 255 255 255
0.000210051 -0.00454153 0.0115382 255 255 255
0.00036177 -0.00458254 0.0117348 255 255 255
0.000213701 -0.0045273 0.0115635 255 255 255
3.60255e-05 -0.00439221 0.0112713 255 255 255
0.000202747 -0.00451842 0.0115518 255 255 255
0.000123632 -0.00444796 0.0114584 255 255 255
0.00010664 -0.00442419 0.0114205 255 255 255
0.000104662 -0.00441376 0.0114154 255 255 255
0.000112677 -0.0044278 0.0114433 255 255 255
2.21396e-05 -0.00436234 0.0113006 255 255 255
0.000344013 -0.00453806 0.0117928 255 255 255
0.000316036 -0.00453056 0.0117679 255 255 255
-2.37289e-05 -0.00439939 0.0113282 255 255 255
0.000213245 -0.00445526 0.0116177 255 255 255
0.000304348 -0.0045392 0.0117912 255 255 255
0.000167529 -0.00439618 0.011545 255 255 255
0.000313744 -0.00454125 0.0118425 255 255 255
0.0002971 -0.00451388 0.0118515 255 255 255
0.000206186 -0.00437495 0.0116569 255 255 255
0.000296244 -0.00435186 0.0117462 255 255 255
0.000255058 -0.00435305 0.0117233 255 255 255
0.000939042 -0.00361037 0.0116781 255 255 255
0.000215176 -0.00433781 0.0116918 255 255 255
0.000239345 -0.00434018 0.011736 255 255 255
0.000171222 -0.00430573 0.0116474 255 255 255
0.000181962 -0.00430487 0.0116867 255 255 255
0.000274051 -0.00405827 0.011531 255 255 255
0.00022816 -0.00452865 0.0119514 255 255 255
0.000195185 -0.00431402 0.0117326 255 255 255
0.000209232 -0.00431447 0.0117493 255 255 255
0.000177326 -0.00428999 0.0117059 255 255 255
0.000175441 -0.00427088 0.0117286 255 255 255
0.000969639 -0.00350828 0.0117708 255 255 255
0.000274987 -0.00428147 0.0118448 255 255 255
0.000196058 -0.00427758 0.0117603 255 255 255
0.000236667 -0.00426997 0.0118136 255 255 255
0.000195048 -0.00449029 0.012 255 255 255
0.000222122 -0.00446636 0.0120282 255 255 255
0.00017788 -0.00421543 0.0117983 255 255 255
0.000210565 -0.0042101 0.0118618 255 255 255
-0.000274701 -0.00434451 0.0115255 255 255 255
0.000293574 -0.00420946 0.0119827 255 255 255
0.000226091 -0.00418333 0.0119028 255 255 255
0.000942516 -0.00342885 0.0118951 255 255 255
0.000291038 -0.00417656 0.0120441 255 255 255
0.000256662 -0.00413669 0.0119794 255 255 255
0.000251089 -0.00410628 0.0119879 255 255 255
0.00027201 -0.00410441 0.0120167 255 255 255
0.00027946 -0.00413993 0.0120721 255 255 255
0.000267982 -0.00412928 0.0120462 255 255 255
0.00014126 -0.00401854 0.0118136 255 255 255
0.000112026 -0.00391447 0.0116932 255 255 255
0.000270347 -0.0041208 0.0120769 255 255 255
0.000297446 -0.00412039 0.0121225 255 255 255
7.75601e-05 -0.00395693 0.0117474 255 255 255
0.000138475 -0.00398828 0.0118655 255 255 255
0.000931054 -0.00329451 0.0120085 255 255 255
8.6102e-05 -0.00397358 0.0118055 255 255 255
0.000266987 -0.00405293 0.0120982 255 255 255
7.11046e-05 -0.00390641 0.0117898 255 255 255
0.000305474 -0.00407324 0.0121898 255 255 255
5.66632e-05 -0.00387244 0.0118004 255 255 255
0.000276832 -0.00403609 0.0121845 255 255 255
-0.000231699 -0.0040102 0.0116401 255 255 255
6.47535e-05 -0.00388579 0.0118448 255 255 255
0.000151215 -0.0038775 0.0119746 255 255 255
4.62054e-05 -0.0038642 0.0118529 255 255 255
0.000385192 -0.00381711 0.0122297 255 255 255
4.43079e-05 -0.00382578 0.0118919 255 255 255
5.53551e-05 -0.00385418 0.0119445 255 255 255
0.000307975 -0.00394034 0.0123029 255 255 255
3.2419e-05 -0.00379285 0.0118992 255 255 255
6.15343e-05 -0.00375124 0.0118994 255 255 255
3.01882e-05 -0.00379747 0.0119364 255 255 255
2.23701e-05 -0.00377734 0.0119164 255 255 255
0.000301942 -0.00390474 0.0123388 255 255 255
5.51099e-05 -0.00381057 0.0119976 255 255 255
0.000299638 -0.003889 0.0123387 255 255 255
0.000332446 -0.0038874 0.0123986 255 255 255
0.000305252 -0.00384572 0.012373 255 255 255
3.20411e-05 -0.00376135 0.0120446 255 255 255
1.36516e-05 -0.00369274 0.0120043 255 255 255
4.16605e-05 -0.00375555 0.0121014 255 255 255
0.000328896 -0.00377394 0.01244 255 255 255
8.42342e-06 -0.00372255 0.012061 255 255 255
0.000357734 -0.0037833 0.0124952 255 255 255
2.45322e-05 -0.00371169 0.0120927 255 255 255
7.14816e-05 -0.00370038 0.0121591 255 255 255
0.000340583 -0.00373574 0.0124893 255 255 255
1.24093e-05 -0.00369354 0.0121046 255 255 255
7.70993e-05 -0.00355544 0.0120718 255 255 255
1.6754e-05 -0.00367785 0.0121249 255 255 255
0.00037571 -0.00371692 0.0125593 255 255 255
0.000371555 -0.00364676 0.0125668 255 255 255
0.000398067 -0.00366393 0.0126525 255 255 255
0.000393674 -0.00363879 0.0126332 255 255 255
6.44415e-06 -0.00360309 0.0121835 255 255 255
-2.35208e-06 -0.00355954 0.0121786 255 255 255
0.000384937 -0.00354638 0.012594 255 255 255
0.000371966 -0.00356173 0.0126135 255 255 255
5.23759e-06 -0.00354921 0.0122534 255 255 255
-5.9171e-06 -0.00350816 0.0122353 255 255 255
0.000317776 -0.00357311 0.0126678 255 255 255
0.000326736 -0.00362669 0.0127468 255 255 255
0.000386409 -0.00363663 0.0128397 255 255 255
-2.66034e-07 -0.00350799 0.0122896 255 255 255
0.000287862 -0.00321935 0.0123423 255 255 255
0.000285388 -0.00350852 0.0126381 255 255 255
2.00454e-06 -0.00346329 0.0123558 255 255 255
-1.38191e-05 -0.00345965 0.012345 255 255 255
-1.51735e-05 -0.0034147 0.0123474 255 255 255
-5.89797e-05 -0.00347432 0.0124324 255 255 255
-0.000103438 -0.00338266 0.0123638 255 255 255
-0.000111998 -0.00328756 0.0123493 255 255 255
-0.000169238 -0.00343679 0.0124218 255 255 255
-0.000162298 -0.00331968 0.012379 255 255 255
0.000105147 -0.00514788 0.0109504 255 255 255
8.49783e-05 -0.00513947 0.0109558 255 255 255
6.17317e-05 -0.00516069 0.0110004 255 255 255
2.01057e-05 -0.00510268 0.0109399 255 255 255
0.000116432 -0.00499321 0.0109437 255 255 255
5.56589e-05 -0.00512606 0.0110808 255 255 255
2.85966e-05 -0.00513249 0.0111197 255 255 255
-6.17306e-05 -0.00509961 0.0110934 255 255 255
0.000243728 -0.00480385 0.0110343 255 255 255
-4.67882e-05 -0.00508477 0.0111743 255 255 255
-6.27029e-05 -0.00502403 0.0110995 255 255 255
-6.58807e-05 -0.00501577 0.0110931 255 255 255
6.9206e-05 -0.00498183 0.0112041 255 255 255
0.000107499 -0.00482764 0.0110721 255 255 255
3.73673e-05 -0.00495515 0.01124 255 255 255
0.00018534 -0.00464969 0.0111599 255 255 255
0.00021941 -0.00469172 0.0113795 255 255 255
0.000128188 -0.00454338 0.0111666 255 255 255
0.000105424 -0.00452183 0.0111875 255 255 255
0.000105448 -0.00451515 0.011174 255 255 255
0.000226516 -0.00464273 0.0114886 255 255 255
0.000103087 -0.00455299 0.0112649 255 255 255
0.00109885 -0.00381089 0.0114499 255 255 255
0.00107688 -0.00381164 0.0114303 255 255 255
0.000347384 -0.0045892 0.0116297 255 255 255
9.95663e-05 -0.00453598 0.0113071 255 255 255
0.000373521 -0.00458581 0.011666 255 255 255
0.000351235 -0.00457306 0.0116462 255 255 255
0.000217109 -0.00458696 0.0115319 255 255 255
6.78915e-05 -0.00448166 0.0112739 255 255 255
0.000213603 -0.00455908 0.0115481 255 255 255
0.000393503 -0.00457907 0.0117744 255 255 255
0.000104725 -0.00449424 0.0113727 255 255 255
0.000100019 -0.00446653 0.0113378 255 255 255
0.00103361 -0.00379552 0.0115227 255 255 255
0.00018412 -0.00452017 0.0115289 255 255 255
0.00031911 -0.00454927 0.011722 255 255 255
0.000120262 -0.00448048 0.0114355 255 255 255
9.93378e-05 -0.00444555 0.0113674 255 255 255
0.000340103 -0.00454291 0.0117658 255 255 255
0.000101011 -0.00442577 0.0113881 255 255 255
1.78825e-05 -0.00441182 0.0112977 255 255 255
0.000146403 -0.00443924 0.0114831 255 255 255
2.01804e-05 -0.00439075 0.0112899 255 255 255
0.000989728 -0.00376537 0.0115585 255 255 255
0.000146109 -0.00444439 0.0114947 255 255 255
0.000211132 -0.00445957 0.011592 255 255 255
0.000142057 -0.00439609 0.0114795 255 255 255
0.00101329 -0.00368062 0.0115362 255 255 255
0.000121033 -0.00438424 0.0114508 255 255 255
0.000145334 -0.00440451 0.0115145 255 255 255
0.000291856 -0.00453551 0.0118317 255 255 255
0.000318219 -0.00450107 0.0118184 255 255 255
0.00032383 -0.00453522 0.01187 255 255 255
0.00019723 -0.00441994 0.0116072 255 255 255
0.000213385 -0.00441248 0.0116375 255 255 255
0.00018198 -0.00439377 0.0116023 255 255 255
0.000943528 -0.00370893 0.0116096 255 255 255
-5.80454e-05 -0.0043708 0.0113404 255 255 255
-0.000823173 -0.00488825 0.0111617 255 255 255
0.000248701 -0.00451751 0.0118656 255 255 255
-0.000510151 -0.00443259 0.0109934 255 255 255
0.000944269 -0.00366209 0.011645 255 255 255
0.000951049 -0.00364683 0.0116628 255 255 255
0.00100659 -0.00357376 0.011685 255 255 255
0.000278916 -0.00451079 0.0120482 255 255 255
0.000232234 -0.00411847 0.0115232 255 255 255
0.000202954 -0.00451013 0.0119959 255 255 255
0.000958139 -0.00362264 0.0117613 255 255 255
-0.000239162 -0.00440362 0.0114383 255 255 255
-0.000257546 -0.00440324 0.0114534 255 255 255
-0.000281478 -0.00444185 0.0115264 255 255 255
0.00027891 -0.00423891 0.011914 255 255 255
0.000257549 -0.00399169 0.0115905 255 255 255
0.000964544 -0.00349415 0.011794 255 255 255
0.000134607 -0.00412384 0.0116584 255 255 255
0.00026544 -0.00420752 0.0119215 255 255 255
0.000270445 -0.00419862 0.0119526 255 255 255
0.000912033 -0.00349922 0.0118191 255 255 255
0.000274088 -0.00419738 0.0119881 255 255 255
0.000263935 -0.00416915 0.0119531 255 255 255
0.000270676 -0.00416063 0.0119863 255 255 255
0.000163562 -0.00396068 0.0116355 255 255 255
0.000888127 -0.0035292 0.0119162 255 255 255
0.000269175 -0.00416454 0.0120098 255 255 255
0.000294079 -0.00417232 0.0120659 255 255 255
0.000136081 -0.00408999 0.01178 255 255 255
0.000132449 -0.00405687 0.0117432 255 255 255
0.000136512 -0.00404483 0.0117313 255 255 255
0.00027469 -0.00416008 0.0120429 255 255 255
0.000269704 -0.00414244 0.0120273 255 255 255
0.000434759 -0.00409626 0.0121835 255 255 255
0.000928434 -0.00346784 0.0119745 255 255 255
0.000141168 -0.00407316 0.0118377 255 255 255
0.000105319 -0.0039615 0.011694 255 255 255
0.000271763 -0.00410379 0.0120677 255 255 255
0.000119072 -0.00393936 0.0116895 255 255 255
0.000274313 -0.00410076 0.0121187 255 255 255
0.000149625 -0.00403166 0.0118952 255 255 255
0.000895137 -0.00341272 0.0119955 255 255 255
0.000268143 -0.00403507 0.0120457 255 255 255
7.88979e-05 -0.00395689 0.0117635 255 255 255
0.000244224 -0.00400938 0.0120285 255 255 255
0.000117578 -0.00387364 0.0117233 255 255 255
-0.000781836 -0.00433511 0.0112742 255 255 255
0.000158902 -0.00397357 0.0119233 255 255 255
7.78659e-05 -0.00391861 0.0117486 255 255 255
6.93164e-05 -0.0039304 0.0118136 255 255 255
-7.43175e-05 -0.00394947 0.0116734 255 255 255
0.000311561 -0.00403063 0.0122448 255 255 255
6.62199e-05 -0.0039075 0.0118519 255 255 255
0.000290393 -0.00399643 0.0122352 255 255 255
0.000299258 -0.00397313 0.0122584 255 255 255
4.28565e-05 -0.00388019 0.01185 255 255 255
0.000844323 -0.00328424 0.0120963 255 255 255
0.000294225 -0.00394563 0.0122731 255 255 255
4.89309e-05 -0.00383105 0.0118335 255 255 255
6.40553e-05 -0.00380549 0.0118278 255 255 255
0.000327795 -0.00395264 0.0123317 255 255 255
4.17258e-05 -0.00387482 0.0119184 255 255 255
4.69768e-05 -0.00386516 0.0119109 255 255 255
5.00763e-05 -0.00382819 0.0119093 255 255 255
0.000315276 -0.00393025 0.0123514 255 255 255
5.67585e-05 -0.00383933 0.0119379 255 255 255
0.000741454 -0.00333854 0.0121597 255 255 255
0.000813878 -0.00324454 0.012141 255 255 255
2.74557e-05 -0.00380502 0.0119067 255 255 255
3.00481e-05 -0.00381344 0.011956 255 255 255
2.63409e-05 -0.00377749 0.0119367 255 255 255
3.06946e-05 -0.0038051 0.0119777 255 255 255
0.000661738 -0.00334082 0.0121822 255 255 255
0.000672012 -0.00332374 0.0121809 255 255 255
2.62643e-05 -0.00378837 0.0119919 255 255 255
0.000380667 -0.0038234 0.0124789 255 255 255
0.000656474 -0.00332575 0.0122082 255 255 255
1.21534e-05 -0.00373073 0.011994 255 255 255
0.000348606 -0.00377119 0.0124765 255 255 255
6.71937e-06 -0.00371184 0.0119849 255 255 255
1.99268e-05 -0.00374475 0.0120571 255 255 255
0.000331682 -0.00374645 0.0124447 255 255 255
6.80749e-06 -0.0037082 0.0120154 255 255 255
3.39703e-06 -0.00370828 0.0120428 255 255 255
0.000389743 -0.00367192 0.0125741 255 255 255
2.35777e-05 -0.00365366 0.0121638 255 255 255
2.42788e-06 -0.00361571 0.0121076 255 255 255
0.000427079 -0.00368548 0.0127659 255 255 255
1.56335e-05 -0.00362174 0.0121921 255 255 255
0.000386135 -0.00358044 0.0126134 255 255 255
0.000383034 -0.00356314 0.0126315 255 255 255
2.28605e-05 -0.00357783 0.0122231 255 255 255
0.000386886 -0.00366634 0.0128039 255 255 255
2.09168e-06 -0.00355933 0.0121979 255 255 255
7.12635e-05 -0.00343935 0.0122049 255 255 255
0.000313626 -0.00357521 0.0126899 255 255 255
-6.32958e-06 -0.00351918 0.012217 255 255 255
0.000277337 -0.00354639 0.012789 255 255 255
-1.10375e-05 -0.00344159 0.0122911 255 255 255
-2.12237e-05 -0.00352239 0.0124462 255 255 255
-0.000101813 -0.00338706 0.0123766 255 255 255
-9.06764e-05 -0.00344023 0.0124627 255 255 255
-9.37245e-05 -0.00342791 0.0125101 255 255 255
-5.62995e-06 -0.00314048 0.0123947 255 255 255
-1.38318e-05 -0.00315278 0.0123985 255 255 255
-8.87601e-05 -0.00307451 0.0123306 255 255 255
6.9287e-06 -0.00509408 0.0109721 255 255 255
9.03621e-05 -0.00499916 0.011013 255 255 255
-2.35341e-05 -0.00505454 0.0110077 255 255 255
-2.3989e-05 -0.00501633 0.0110154 255 255 255
-5.70306e-05 -0.00501779 0.0110695 255 255 255
-6.22851e-07 -0.00494136 0.0111125 255 255 255
0.000173051 -0.00476236 0.0110713 255 255 255
0.00017531 -0.00473777 0.0110809 255 255 255
0.000294896 -0.00465653 0.011089 255 255 255
0.000319931 -0.00462919 0.0111179 255 255 255
-1.58316e-05 -0.00492049 0.0112033 255 255 255
0.00203436 -0.00409893 0.0124315 255 255 255
0.000227891 -0.00450665 0.0111497 255 255 255
0.000377062 -0.00458722 0.0116811 255 255 255
0.000403624 -0.00458793 0.0117411 255 255 255
9.62294e-05 -0.00448862 0.0113269 255 255 255
0.00108198 -0.00381554 0.011454 255 255 255
0.000371692 -0.0045585 0.0118218 255 255 255
0.000201161 -0.00449339 0.0115638 255 255 255
0.000185746 -0.00447885 0.0115434 255 255 255
3.0585e-05 -0.00442582 0.0112878 255 255 255
0.00106236 -0.00373593 0.0114664 255 255 255
0.000192548 -0.00445572 0.0115635 255 255 255
0.000155339 -0.00444493 0.0115248 255 255 255
0.000153237 -0.00442678 0.0115197 255 255 255
0.00018534 -0.00443253 0.0115903 255 255 255
0.00107882 -0.0036873 0.0115057 255 255 255
0.000114485 -0.0043828 0.0114631 255 255 255
0.000981271 -0.00373976 0.0115373 255 255 255
0.000167374 -0.00437475 0.0115692 255 255 255
0.000214617 -0.00454014 0.0118837 255 255 255
0.000986598 -0.00371554 0.0115686 255 255 255
0.000964908 -0.00372911 0.0116223 255 255 255
0.00096987 -0.00369266 0.011579 255 255 255
-0.000130929 -0.00440002 0.0113733 255 255 255
0.0012108 -0.00386796 0.0121528 255 255 255
-0.000234441 -0.00448297 0.0114087 255 255 255
-0.000117905 -0.00437051 0.0113776 255 255 255
0.000948392 -0.0036641 0.0116096 255 255 255
-0.000247669 -0.00445788 0.0114159 255 255 255
-0.000128736 -0.00434842 0.0114019 255 255 255
0.000950049 -0.00368815 0.0117258 255 255 255
0.000968549 -0.00361252 0.011649 255 255 255
0.000951146 -0.003672 0.0117424 255 255 255
0.000933501 -0.00366921 0.0117125 255 255 255
0.000243628 -0.0040938 0.0115425 255 255 255
0.000174031 -0.00417598 0.0116471 255 255 255
0.000270173 -0.00401836 0.0115739 255 255 255
0.000140318 -0.00418685 0.0116822 255 255 255
0.000168831 -0.00410568 0.011616 255 255 255
0.000937637 -0.0035682 0.011731 255 255 255
0.000146876 -0.00413244 0.0116514 255 255 255
0.000972966 -0.00352711 0.0117372 255 255 255
-0.000330995 -0.00439429 0.0114945 255 255 255
0.000944508 -0.00358985 0.0118466 255 255 255
0.000912369 -0.00354963 0.0117896 255 255 255
0.000157695 -0.00406031 0.0116734 255 255 255
0.000138787 -0.00410459 0.0117423 255 255 255
0.000955065 -0.00353154 0.0118767 255 255 255
0.000955605 -0.00346317 0.011808 255 255 255
0.000158558 -0.00410276 0.011852 255 255 255
0.00026496 -0.00406632 0.0120312 255 255 255
0.000913681 -0.00346302 0.0118999 255 255 255
0.000263827 -0.00408768 0.0120666 255 255 255
0.000215966 -0.00406068 0.0119838 255 255 255
0.000263382 -0.00405054 0.0120643 255 255 255
0.000122206 -0.00400783 0.0118079 255 255 255
0.000274811 -0.00406715 0.0121301 255 255 255
8.88212e-05 -0.00398094 0.0117491 255 255 255
0.000272197 -0.00400635 0.0120622 255 255 255
0.000949181 -0.00336519 0.0119282 255 255 255
0.000271883 -0.00404422 0.012145 255 255 255
7.32793e-05 -0.00393923 0.0117384 255 255 255
0.000117308 -0.00387486 0.0116934 255 255 255
0.000273019 -0.00402462 0.0121575 255 255 255
7.34785e-05 -0.00394379 0.0117802 255 255 255
6.35537e-05 -0.00394735 0.0117938 255 255 255
0.00027261 -0.00400922 0.01218 255 255 255
6.1313e-05 -0.00392181 0.0117964 255 255 255
0.000271312 -0.00395937 0.0121687 255 255 255
0.000121613 -0.0038151 0.0117631 255 255 255
0.000970527 -0.00328489 0.0120127 255 255 255
0.000276819 -0.00396181 0.0122063 255 255 255
6.27965e-05 -0.00386938 0.0117902 255 255 255
6.96001e-05 -0.00386247 0.0117832 255 255 255
0.000322865 -0.00394971 0.0123064 255 255 255
0.000827949 -0.00340815 0.0121043 255 255 255
0.000300439 -0.00390445 0.0122823 255 255 255
0.000526581 -0.00355356 0.0120364 255 255 255
0.000294769 -0.0038749 0.0123007 255 255 255
4.37094e-05 -0.00383406 0.0119632 255 255 255
0.000747121 -0.0033551 0.0121782 255 255 255
4.24823e-05 -0.00379905 0.011953 255 255 255
0.000810858 -0.00327177 0.0121299 255 255 255
0.000326299 -0.00379372 0.0123761 255 255 255
2.41669e-05 -0.0037947 0.0119627 255 255 255
2.11716e-05 -0.00375744 0.0119488 255 255 255
0.000738517 -0.00327744 0.0121871 255 255 255
0.000471627 -0.00347072 0.0121525 255 255 255
0.000486647 -0.00344335 0.0121597 255 255 255
8.12663e-06 -0.0037274 0.0120141 255 255 255
0.000463959 -0.0034542 0.012192 255 255 255
0.000147938 -0.00359622 0.0120222 255 255 255
2.76402e-05 -0.00366748 0.0119907 255 255 255
-2.33038e-06 -0.00366434 0.0120791 255 255 255
0.000745319 -0.00317147 0.0123169 255 255 255
0.000120434 -0.00353899 0.012095 255 255 255
0.000645837 -0.00322718 0.0123209 255 255 255
1.4176e-05 -0.00364794 0.012149 255 255 255
0.000387183 -0.00361272 0.0126358 255 255 255
2.63363e-05 -0.00357306 0.0120668 255 255 255
0.000379525 -0.00359512 0.0126194 255 255 255
1.40526e-05 -0.00360539 0.0122178 255 255 255
-5.18091e-07 -0.00358602 0.0121918 255 255 255
0.000372006 -0.00351676 0.0126155 255 255 255
0.0002981 -0.00355796 0.0126371 255 255 255
0.000297779 -0.00357208 0.0127078 255 255 255
1.10065e-05 -0.00353035 0.0122854 255 255 255
0.000265093 -0.0034912 0.0126897 255 255 255
-1.11784e-05 -0.00349469 0.0123152 255 255 255
-1.10751e-05 -0.00345551 0.0122714 255 255 255
0.00025626 -0.00347536 0.0127347 255 255 255
-4.34553e-06 -0.00342874 0.0122637 255 255 255
-7.15925e-06 -0.0034604 0.0123581 255 255 255
5.3796e-05 -0.00345717 0.01246 255 255 255
-1.92978e-05 -0.00342861 0.0123414 255 255 255
-2.4893e-05 -0.00335305 0.012361 255 255 255
-7.13755e-06 -0.00332012 0.0123599 255 255 255
-0.000114356 -0.00337851 0.0123933 255 255 255
-0.00014989 -0.00340168 0.0124177 255 255 255
-0.000138856 -0.00331032 0.0123611 255 255 255
-0.000176576 -0.00333594 0.0123755 255 255 255
-0.000153698 -0.00329759 0.0123801 255 255 255
-0.000171902 -0.00331109 0.0124094 255 255 255
1.07342e-05 -0.00512841 0.0111179 255 255 255
-1.29003e-05 -0.005053 0.0109587 255 255 255
-5.74219e-06 -0.00501483 0.0109699 255 255 255
5.69066e-05 -0.00498024 0.010966 255 255 255
-8.20257e-05 -0.00508052 0.0111234 255 255 255
0.000115468 -0.00488485 0.0109994 255 255 255
-6.24926e-05 -0.00503386 0.0110966 255 255 255
-5.44627e-05 -0.00501021 0.0110544 255 255 255
0.000163702 -0.0048512 0.0110202 255 255 255
5.44528e-05 -0.00498623 0.0111732 255 255 255
0.000300411 -0.00472572 0.0110856 255 255 255
-8.42112e-06 -0.00492393 0.0111612 255 255 255
0.000307396 -0.00468487 0.0111222 255 255 255
0.000401323 -0.00461598 0.0111321 255 255 255
0.00029618 -0.00467016 0.0111179 255 255 255
0.000318435 -0.00464604 0.0111331 255 255 255
0.00011871 -0.00473662 0.0111533 255 255 255
0.000175337 -0.00459692 0.0111584 255 255 255
0.000354016 -0.0045087 0.0112004 255 255 255
0.000140542 -0.0046453 0.0112222 255 255 255
0.000189203 -0.00453079 0.0111356 255 255 255
0.000120512 -0.00455337 0.011149 255 255 255
0.000153509 -0.00462336 0.0113586 255 255 255
0.000114389 -0.0045418 0.0111841 255 255 255
0.000412956 -0.00461328 0.0116823 255 255 255
0.000151752 -0.00460923 0.0113741 255 255 255
0.000104959 -0.00453619 0.0112103 255 255 255
0.000367362 -0.00458638 0.0116963 255 255 255
9.3105e-05 -0.00450636 0.0112742 255 255 255
8.68316e-05 -0.00444513 0.0111913 255 255 255
0.000566669 -0.00422341 0.0113939 255 255 255
0.000349249 -0.00454779 0.0117641 255 255 255
0.000101851 -0.00448246 0.0113557 255 255 255
0.000350255 -0.00451274 0.0117493 255 255 255
0.000129041 -0.0044861 0.0114459 255 255 255
0.000332229 -0.00454442 0.0118198 255 255 255
0.000323909 -0.00454462 0.0118363 255 255 255
0.000240451 -0.00448019 0.0116061 255 255 255
0.000340244 -0.00449638 0.0118006 255 255 255
0.000319101 -0.00450942 0.0118028 255 255 255
4.76673e-05 -0.00439634 0.011251 255 255 255
0.000313081 -0.00452761 0.0118755 255 255 255
0.00109355 -0.00376964 0.0114302 255 255 255
1.14546e-05 -0.0043956 0.0112929 255 255 255
0.000259847 -0.00440988 0.0116864 255 255 255
0.000431705 -0.00416321 0.0114969 255 255 255
0.000213444 -0.00454385 0.0119891 255 255 255
3.7807e-06 -0.00433316 0.0113032 255 255 255
-7.32653e-05 -0.00442869 0.011406 255 255 255
-6.44949e-05 -0.00437947 0.0113465 255 255 255
-0.000227004 -0.00452675 0.0114565 255 255 255
0.000447907 -0.00409802 0.0115398 255 255 255
0.00100405 -0.00374055 0.0115957 255 255 255
-0.000288998 -0.0044584 0.0114181 255 255 255
0.000241433 -0.0041245 0.0115055 255 255 255
0.000252968 -0.00441205 0.0121027 255 255 255
0.000946422 -0.00369515 0.0115907 255 255 255
-0.000296105 -0.0044197 0.0115012 255 255 255
-0.00028678 -0.00440304 0.0114799 255 255 255
0.00014046 -0.00421925 0.011683 255 255 255
0.000165632 -0.00414551 0.0115848 255 255 255
0.00016372 -0.00412957 0.0115671 255 255 255
0.000226599 -0.00407875 0.0115524 255 255 255
0.000148111 -0.00414926 0.0116161 255 255 255
0.000135045 -0.004191 0.0116919 255 255 255
0.000153682 -0.00419254 0.0117566 255 255 255
0.000322013 -0.00399077 0.0115864 255 255 255
0.000935544 -0.00362968 0.0116964 255 255 255
0.00100225 -0.00353654 0.0117183 255 255 255
0.000327719 -0.0039185 0.0116406 255 255 255
0.000915506 -0.00359254 0.0118079 255 255 255
0.000260542 -0.00409946 0.0120113 255 255 255
0.000968748 -0.00349791 0.0117868 255 255 255
0.000169661 -0.00395809 0.0116292 255 255 255
0.000133454 -0.00405857 0.0118146 255 255 255
0.000122764 -0.00404027 0.0117733 255 255 255
0.000181767 -0.00390046 0.0116425 255 255 255
0.000894709 -0.00352124 0.0118785 255 255 255
0.000276012 -0.0040309 0.012083 255 255 255
0.000272451 -0.0040199 0.0121446 255 255 255
0.00016451 -0.00386444 0.0116726 255 255 255
0.000149499 -0.0038849 0.0116955 255 255 255
