ply
format ascii 1.0
element vertex 1189
property float x
property float y
property float z
property uchar red
property uchar green
property uchar blue
end_header
0.0574818 -0.232801 0.863737 255 255 255
0.0922695 -0.233718 0.876639 255 255 255
0.167521 -0.254018 0.899537 255 255 255
0.363885 -0.288153 0.948405 255 255 255
-0.312993 -0.178775 0.787069 255 255 255
-0.30683 -0.174206 0.786248 255 255 255
-0.168283 -0.181206 0.814549 255 255 255
-0.135877 -0.193294 0.823106 255 255 255
-0.135877 -0.193294 0.823106 255 255 255
-0.121706 -0.192755 0.825548 255 255 255
-0.112914 -0.186797 0.824914 255 255 255
-0.0610738 -0.209753 0.841888 255 255 255
-0.0218458 -0.200686 0.839755 255 255 255
-0.0103546 -0.213333 0.846037 255 255 255
-0.00411734 -0.215636 0.853469 255 255 255
-0.00146661 -0.211632 0.853769 255 255 255
-0.00146699 -0.211587 0.853692 255 255 255
-0.000170745 -0.201215 0.85044 255 255 255
0.0315447 -0.203315 0.852922 255 255 255
0.0491187 -0.209693 0.862445 255 255 255
0.0910451 -0.210112 0.865547 255 255 255
0.128408 -0.208186 0.877403 255 255 255
0.19597 -0.219907 0.896084 255 255 255
0.357733 -0.237558 0.934215 255 255 255
-0.0127897 -0.178917 0.840969 255 255 255
0.067839 -0.18375 0.855757 255 255 255
0.0732212 -0.182933 0.860508 255 255 255
0.132627 -0.199698 0.874542 255 255 255
0.135966 -0.201513 0.874577 255 255 255
0.139452 -0.194716 0.877249 255 255 255
0.205131 -0.210744 0.896096 255 255 255
0.23976 -0.19176 0.897818 255 255 255
0.276899 -0.217086 0.912371 255 255 255
0.325213 -0.222848 0.92396 255 255 255
0.380759 -0.211721 0.931462 255 255 255
-0.253465 -0.133061 0.786248 255 255 255
-0.178742 -0.135046 0.800427 255 255 255
0.244217 -0.16046 0.890516 255 255 255
0.274405 -0.172808 0.900517 255 255 255
0.308992 -0.194016 0.912929 255 255 255
0.312672 -0.188064 0.912761 255 255 255
0.319557 -0.177608 0.91117 255 255 255
0.358248 -0.197125 0.923219 255 255 255
0.361165 -0.175323 0.91802 255 255 255
-0.00410322 -0.126409 0.824894 255 255 255
0.0606488 -0.125837 0.855713 255 255 255
0.0818382 -0.141435 0.851875 255 255 255
0.113213 -0.124625 0.848834 255 255 255
0.157267 -0.139104 0.867843 255 255 255
0.154742 -0.134673 0.865318 255 255 255
0.184381 -0.143445 0.874012 255 255 255
0.227581 -0.1591 0.886909 255 255 255
0.261563 -0.15892 0.893587 255 255 255
0.269702 -0.152444 0.893432 255 255 255
0.364308 -0.164858 0.916069 255 255 255
0.482379 -0.150699 0.934718 255 255 255
-0.00903154 -0.104093 0.817556 255 255 255
0.0171283 -0.112581 0.842958 255 255 255
0.0665523 -0.114974 0.853304 255 255 255
0.0549951 -0.0954982 0.845307 255 255 255
0.0818795 -0.118708 0.857118 255 255 255
0.0824648 -0.105555 0.853589 255 255 255
0.15896 -0.126684 0.863089 255 255 255
0.15896 -0.126684 0.863089 255 255 255
0.331228 -0.118602 0.897631 255 255 255
0.331228 -0.118602 0.897631 255 255 255
0.334251 -0.121423 0.898983 255 255 255
-0.21875 -0.0733765 0.777456 255 255 255
0.381003 -0.104513 0.90289 255 255 255
-0.270632 -0.0409444 0.75869 255 255 255
0.30943 -0.0765691 0.881772 255 255 255
0.31986 -0.0702625 0.882232 255 255 255
0.361883 -0.0680243 0.889707 255 255 255
-0.372716 -0.023177 0.733926 255 255 255
-0.358132 -0.0188849 0.735858 255 255 255
-0.249554 -0.0153445 0.756146 255 255 255
-0.144493 -0.013854 0.776784 255 255 255
0.364723 -0.0445744 0.883705 255 255 255
0.361653 -0.0385434 0.881837 255 255 255
0.361523 -0.0302976 0.879684 255 255 255
-0.281936 0.00334453 0.744692 255 255 255
-0.278897 0.00353676 0.745439 255 255 255
-0.253866 -0.00337867 0.752809 255 255 255
-0.145749 -0.0119822 0.775303 255 255 255
-0.104613 -0.00986548 0.782693 255 255 255
0.147864 -0.0208938 0.723008 255 255 255
0.241014 -0.00656715 0.851232 255 255 255
0.245218 -0.00669844 0.850971 255 255 255
-0.0168131 0.00762847 0.67906 255 255 255
-0.00883748 0.0144989 0.677496 255 255 255
0.26704 0.00325415 0.852524 255 255 255
0.267001 0.00326919 0.852572 255 255 255
0.323222 0.0124287 0.861038 255 255 255
0.360826 0.0248014 0.865252 255 255 255
0.38497 0.0226944 0.87008 255 255 255
0.420562 0.0171004 0.878762 255 255 255
-0.303168 0.0398606 0.730866 255 255 255
-0.186426 0.0520961 0.75051 255 255 255
-0.165461 0.0471148 0.756003 255 255 255
-0.136835 0.0423696 0.763318 255 255 255
-0.135891 0.0513607 0.761586 255 255 255
-0.126318 0.0457886 0.76456 255 255 255
-0.0615852 0.0362261 0.749938 255 255 255
0.240172 0.052534 0.834651 255 255 255
0.315218 0.0283397 0.85568 255 255 255
0.366672 0.0293007 0.865304 255 255 255
0.449419 0.0278719 0.881638 255 255 255
0.449419 0.0278719 0.881638 255 255 255
-0.271769 0.0676571 0.729711 255 255 255
0.218573 0.0586709 0.828259 255 255 255
0.223306 0.0621592 0.828626 255 255 255
0.223306 0.0621467 0.828592 255 255 255
0.227057 0.0700632 0.827338 255 255 255
0.246244 0.0548742 0.83515 255 255 255
0.248769 0.0574205 0.834961 255 255 255
0.24604 0.0713642 0.830747 255 255 255
0.284314 0.0799405 0.835497 255 255 255
0.370453 0.0780427 0.852597 255 255 255
0.412464 0.0756637 0.861546 255 255 255
0.41316 0.0798215 0.860437 255 255 255
0.457885 0.0629217 0.873625 255 255 255
0.446975 0.0687756 0.870239 255 255 255
0.284544 0.088342 0.833475 255 255 255
0.322291 0.0871039 0.841041 255 255 255
0.386913 0.089761 0.852642 255 255 255
0.115727 0.103136 0.795442 255 255 255
0.289759 0.126112 0.824847 255 255 255
0.372652 0.109803 0.844583 255 255 255
-0.255141 0.134921 0.715765 255 255 255
-0.188278 0.126061 0.730798 255 255 255
-0.175106 0.125749 0.733774 255 255 255
-0.0811554 0.127168 0.751842 255 255 255
0.113748 0.144024 0.783537 255 255 255
0.126375 0.144561 0.786369 255 255 255
0.298401 0.147571 0.820476 255 255 255
0.346967 0.144727 0.83089 255 255 255
0.346945 0.149529 0.829493 255 255 255
0.392046 0.14905 0.83862 255 255 255
-0.2381 0.151963 0.71455 255 255 255
-0.114735 0.146841 0.750958 255 255 255
-0.110593 0.163544 0.747161 255 255 255
0.343914 0.177927 0.821585 255 255 255
0.389501 0.177206 0.830871 255 255 255
0.391935 0.179962 0.830646 255 255 255
0.408514 0.183022 0.832865 255 255 255
-0.0801148 0.178715 0.738811 255 255 255
0.130282 0.180507 0.777674 255 255 255
0.241238 0.197504 0.806156 255 255 255
0.245667 0.202915 0.805416 255 255 255
0.245667 0.202915 0.805416 255 255 255
0.279979 0.206433 0.801569 255 255 255
0.298519 0.188551 0.809596 255 255 255
0.353988 0.198554 0.81738 255 255 255
0.323193 0.209614 0.808929 255 255 255
0.400817 0.192235 0.828874 255 255 255
-0.383361 0.177365 0.67901 255 255 255
-0.325586 0.187813 0.69881 255 255 255
-0.168335 0.186534 0.718691 255 255 255
0.287222 0.228066 0.796966 255 255 255
0.368728 0.219619 0.815507 255 255 255
0.399598 0.2217 0.820462 255 255 255
0.420603 0.24051 0.819324 255 255 255
0.326307 0.245204 0.800616 255 255 255
0.368689 0.258976 0.805016 255 255 255
0.41362 0.255301 0.814462 255 255 255
0.272114 0.256378 0.787199 255 255 255
0.323375 0.26191 0.795489 255 255 255
-0.342917 0.239202 0.669267 255 255 255
0.423882 0.28285 0.734256 255 255 255
0.453642 0.283539 0.739742 255 255 255
-0.259389 -0.25965 0.81776 255 255 255
-0.202861 -0.271917 0.830884 255 255 255
-0.378945 -0.231456 0.786243 255 255 255
-0.266327 -0.252715 0.814922 255 255 255
-0.0858926 -0.243875 0.844429 255 255 255
-0.0835903 -0.239063 0.844718 255 255 255
-0.377995 -0.196154 0.777851 255 255 255
-0.248162 -0.172017 0.796832 255 255 255
-0.213962 -0.172452 0.804124 255 255 255
-0.200155 -0.193372 0.811895 255 255 255
-0.176527 -0.175216 0.81162 255 255 255
0.195006 -0.23626 0.89636 255 255 255
0.21515 -0.225392 0.901159 255 255 255
0.384587 -0.234929 0.938107 255 255 255
-0.179358 -0.172222 0.810204 255 255 255
-0.179078 -0.15685 0.806049 255 255 255
-0.179078 -0.15685 0.806049 255 255 255
-0.0745017 -0.177727 0.830317 255 255 255
-0.0745017 -0.177727 0.830317 255 255 255
-0.0152266 -0.185238 0.844631 255 255 255
-0.0152051 -0.185211 0.844391 255 255 255
0.045466 -0.17848 0.851379 255 255 255
0.164666 -0.191276 0.882565 255 255 255
0.36136 -0.222504 0.930349 255 255 255
0.148382 -0.15471 0.854407 255 255 255
0.364362 -0.186458 0.921518 255 255 255
3.2315e-05 -0.137593 0.833195 255 255 255
0.0675388 -0.134963 0.858827 255 255 255
0.0484188 -0.13154 0.854568 255 255 255
0.0757654 -0.129926 0.861943 255 255 255
0.28304 -0.139235 0.892947 255 255 255
-0.0544049 -0.0947819 0.814164 255 255 255
0.159247 -0.113933 0.859645 255 255 255
0.262491 -0.121672 0.903461 255 255 255
0.306131 -0.110532 0.89015 255 255 255
0.326216 -0.124398 0.898051 255 255 255
-0.169887 -0.0590729 0.781741 255 255 255
0.405184 -0.103396 0.90701 255 255 255
0.323256 -0.0411727 0.875036 255 255 255
0.326558 -0.021179 0.870411 255 255 255
0.326981 0.00959484 0.861822 255 255 255
-0.363643 0.0389444 0.71952 255 255 255
0.151205 0.021408 0.709195 255 255 255
0.229843 0.0675754 0.828554 255 255 255
0.368473 0.055221 0.858076 255 255 255
-0.239077 0.0849084 0.731598 255 255 255
0.0608368 0.0730253 0.741083 255 255 255
0.371767 0.0913922 0.846455 255 255 255
-0.23135 0.103048 0.728261 255 255 255
-0.212478 0.10456 0.731959 255 255 255
-0.0831882 0.111744 0.756073 255 255 255
0.28634 0.128916 0.822984 255 255 255
0.316231 0.127463 0.830994 255 255 255
0.324783 0.130813 0.82918 255 255 255
-0.207585 0.129981 0.726572 255 255 255
0.294367 0.149523 0.819135 255 255 255
-0.223798 0.144616 0.719057 255 255 255
-0.233443 0.152267 0.715128 255 255 255
0.127285 0.167561 0.780382 255 255 255
0.277915 0.166789 0.812061 255 255 255
-0.238609 0.172021 0.709368 255 255 255
0.248691 0.20503 0.805402 255 255 255
0.298605 0.207874 0.804467 255 255 255
0.404702 0.195301 0.829239 255 255 255
0.398199 0.19495 0.827432 255 255 255
-0.331189 0.185276 0.697351 255 255 255
-0.186169 0.186552 0.71544 255 255 255
-0.190381 0.19436 0.712467 255 255 255
-0.0309699 0.193031 0.745134 255 255 255
0.124398 0.219912 0.765954 255 255 255
0.124398 0.219912 0.765954 255 255 255
0.285941 0.210567 0.80083 255 255 255
0.365768 0.237401 0.810242 255 255 255
-0.206549 0.212228 0.705892 255 255 255
-0.252817 -0.251246 0.817391 255 255 255
-0.213461 -0.196866 0.81055 255 255 255
-0.0618435 -0.214327 0.843197 255 255 255
-0.287823 -0.174456 0.79024 255 255 255
-0.289531 -0.166117 0.788049 255 255 255
-0.293334 -0.163611 0.786666 255 255 255
0.0478638 -0.222662 0.86198 255 255 255
0.142634 -0.226834 0.887557 255 255 255
-0.27394 -0.145503 0.785885 255 255 255
-0.389652 -0.114081 0.754418 255 255 255
-0.290874 -0.134622 0.77959 255 255 255
0.138074 -0.172668 0.871917 255 255 255
0.153445 -0.157334 0.855628 255 255 255
0.384214 -0.188569 0.925709 255 255 255
0.434732 -0.177311 0.932501 255 255 255
0.103452 -0.13491 0.854195 255 255 255
0.103448 -0.13487 0.854145 255 255 255
0.109293 -0.133191 0.855905 255 255 255
0.322842 -0.148674 0.905159 255 255 255
0.444642 -0.162572 0.930027 255 255 255
0.479641 -0.112028 0.933775 255 255 255
-0.30137 -0.036338 0.750252 255 255 255
-0.219533 -0.0478484 0.770652 255 255 255
-0.357532 -0.0235488 0.737007 255 255 255
0.310614 -0.0423055 0.872914 255 255 255
-0.324873 -0.00747526 0.739861 255 255 255
0.305439 0.0199253 0.856135 255 255 255
0.305484 0.0198952 0.856318 255 255 255
-0.25829 0.0482232 0.737186 255 255 255
-0.135552 0.033917 0.765338 255 255 255
-0.282288 0.0594719 0.730018 255 255 255
0.344674 0.0767627 0.848113 255 255 255
0.406295 0.0804872 0.858883 255 255 255
0.465714 0.0631469 0.874888 255 255 255
-0.278848 0.0740992 0.726885 255 255 255
-0.230507 0.0818885 0.734383 255 255 255
-0.206018 0.103323 0.733136 255 255 255
-0.27821 0.114535 0.716266 255 255 255
-0.245737 0.122498 0.720818 255 255 255
-0.209222 0.132577 0.725156 255 255 255
-0.284778 0.147723 0.706385 255 255 255
-0.166985 0.146996 0.730352 255 255 255
-0.116419 0.153343 0.748726 255 255 255
-0.116419 0.153343 0.748726 255 255 255
-0.278217 0.162004 0.704113 255 255 255
-0.278201 0.162018 0.704049 255 255 255
0.332571 0.187485 0.816241 255 255 255
-0.188433 0.192499 0.713149 255 255 255
0.278953 0.224186 0.796543 255 255 255
0.278953 0.224186 0.796543 255 255 255
-0.267232 0.203264 0.695695 255 255 255
-0.163879 0.214564 0.712686 255 255 255
-0.156973 0.220824 0.712884 255 255 255
-0.112394 0.218788 0.72227 255 255 255
0.11504 0.22221 0.760301 255 255 255
0.42325 0.269233 0.812251 255 255 255
-0.364249 0.233844 0.667855 255 255 255
-0.355348 0.231942 0.670334 255 255 255
-0.312281 0.234083 0.677953 255 255 255
-0.312303 0.234109 0.677966 255 255 255
-0.266969 0.23512 0.686667 255 255 255
-0.382781 -0.246665 0.790227 255 255 255
-0.299401 -0.24484 0.806367 255 255 255
-0.260132 -0.245727 0.812349 255 255 255
-0.381403 -0.197511 0.777726 255 255 255
-0.381403 -0.197511 0.777726 255 255 255
-0.349207 -0.181181 0.780308 255 255 255
-0.264919 -0.203265 0.80233 255 255 255
0.0486459 -0.194584 0.8567 255 255 255
-0.0345244 -0.141802 0.827515 255 255 255
0.271236 -0.154811 0.893429 255 255 255
-0.02039 -0.109177 0.819084 255 255 255
0.480036 -0.133658 0.934415 255 255 255
0.386026 -0.104591 0.903765 255 255 255
-0.264018 0.00583406 0.747794 255 255 255
0.249134 0.0393761 0.839134 255 255 255
0.224245 0.0678227 0.827198 255 255 255
0.451318 0.0819514 0.867989 255 255 255
-0.232884 0.0845095 0.733063 255 255 255
0.497676 0.0938818 0.873702 255 255 255
0.283043 0.124803 0.823719 255 255 255
0.283001 0.124723 0.823478 255 255 255
-0.294735 0.170681 0.698906 255 255 255
-0.217133 0.249826 0.687296 255 255 255
-0.293575 -0.178637 0.790521 255 255 255
0.188521 -0.16857 0.881289 255 255 255
0.0514782 -0.135022 0.854367 255 255 255
0.0935375 -0.122843 0.852077 255 255 255
0.240624 0.0489386 0.834982 255 255 255
-0.297796 0.126255 0.709252 255 255 255
0.450726 0.203916 0.845892 255 255 255
0.41436 0.268517 0.81177 255 255 255
-0.36832 -0.219591 0.786383 255 255 255
0.132084 -0.225522 0.879884 255 255 255
0.435999 -0.153554 0.924997 255 255 255
-0.199265 -0.063718 0.77837 255 255 255
-0.42744 -0.0259971 0.722115 255 255 255
-0.198969 -0.00985865 0.765155 255 255 255
-0.198969 -0.00985865 0.765155 255 255 255
0.344554 0.00780487 0.866604 255 255 255
0.431934 0.015485 0.880467 255 255 255
0.251517 0.0750649 0.830447 255 255 255
-0.105696 0.130253 0.758326 255 255 255
-0.105696 0.130253 0.758326 255 255 255
0.309352 0.255369 0.795558 255 255 255
-0.357778 0.235314 0.670633 255 255 255
-0.140285 -0.215675 0.825568 255 255 255
-0.264033 -0.075381 0.769223 255 255 255
0.345308 0.0804335 0.847371 255 255 255
0.0577235 0.19178 0.772267 255 255 255
0.223189 -0.184847 0.893109 255 255 255
-0.081312 -0.287444 0.857658 255 255 255
-0.372446 -0.242711 0.790916 255 255 255
-0.258915 -0.247909 0.814777 255 255 255
-0.21729 -0.239216 0.82037 255 255 255
-0.0220174 -0.26203 0.862929 255 255 255
0.131111 -0.278251 0.899135 255 255 255
-0.384534 -0.207855 0.779296 255 255 255
-0.169064 -0.235081 0.827181 255 255 255
-0.13668 -0.241043 0.83444 255 255 255
-0.127556 -0.239414 0.835966 255 255 255
-0.117304 -0.224607 0.834443 255 255 255
-0.0900997 -0.236705 0.842368 255 255 255
-0.0884959 -0.230429 0.841426 255 255 255
-0.0884959 -0.230429 0.841426 255 255 255
-0.0832682 -0.245686 0.845913 255 255 255
-0.0265953 -0.240658 0.850729 255 255 255
0.0497468 -0.241109 0.860187 255 255 255
0.0523769 -0.245547 0.860169 255 255 255
0.0523741 -0.245544 0.860037 255 255 255
0.102365 -0.262321 0.887998 255 255 255
-0.323672 -0.190596 0.787808 255 255 255
-0.224523 -0.206062 0.810856 255 255 255
-0.202451 -0.214207 0.816759 255 255 255
-0.14868 -0.208464 0.824885 255 255 255
-0.143231 -0.201299 0.824027 255 255 255
-0.135254 -0.202667 0.825361 255 255 255
-0.0272368 -0.208672 0.843346 255 255 255
-0.00193966 -0.217449 0.854579 255 255 255
0.000837894 -0.215963 0.854586 255 255 255
0.0205006 -0.215369 0.852171 255 255 255
0.0499914 -0.231869 0.862839 255 255 255
0.0289159 -0.216032 0.857334 255 255 255
0.0337545 -0.214989 0.856771 255 255 255
0.0384673 -0.217807 0.857104 255 255 255
0.0545557 -0.230447 0.864605 255 255 255
0.0881286 -0.230563 0.868138 255 255 255
0.085833 -0.222325 0.869449 255 255 255
0.133367 -0.229696 0.880267 255 255 255
0.128008 -0.220794 0.876802 255 255 255
0.134612 -0.225759 0.883556 255 255 255
0.308885 -0.246167 0.926782 255 255 255
0.319073 -0.254979 0.931297 255 255 255
0.325514 -0.243595 0.929619 255 255 255
0.360763 -0.255254 0.93924 255 255 255
0.357947 -0.249516 0.937188 255 255 255
0.377437 -0.253724 0.942064 255 255 255
-0.305285 -0.186617 0.790459 255 255 255
-0.306516 -0.1847 0.789706 255 255 255
-0.306516 -0.1847 0.789706 255 255 255
-0.258349 -0.182524 0.797486 255 255 255
-0.134772 -0.197346 0.823971 255 255 255
-0.131701 -0.19638 0.824511 255 255 255
-0.133539 -0.194793 0.823827 255 255 255
-0.146646 -0.183214 0.818775 255 255 255
-0.146646 -0.183214 0.818775 255 255 255
-0.142625 -0.185024 0.820008 255 255 255
-0.144281 -0.183706 0.819492 255 255 255
-0.144281 -0.183706 0.819492 255 255 255
-0.121375 -0.188457 0.824842 255 255 255
-0.118304 -0.181611 0.823399 255 255 255
-0.0895455 -0.183894 0.82905 255 255 255
-0.0556063 -0.183503 0.836338 255 255 255
-0.00730981 -0.197404 0.847868 255 255 255
0.0103445 -0.197594 0.849877 255 255 255
0.0271376 -0.189643 0.852167 255 255 255
0.0427119 -0.204211 0.857929 255 255 255
0.0490262 -0.203319 0.859626 255 255 255
0.0490248 -0.203314 0.859542 255 255 255
0.0316427 -0.196512 0.852807 255 255 255
0.0595327 -0.203814 0.861799 255 255 255
0.0729625 -0.214543 0.863706 255 255 255
0.0729625 -0.214543 0.863706 255 255 255
0.064643 -0.196972 0.861278 255 255 255
0.0887194 -0.212446 0.864633 255 255 255
0.0804375 -0.199778 0.861841 255 255 255
0.0978686 -0.193512 0.86614 255 255 255
0.0978646 -0.193496 0.866058 255 255 255
0.119748 -0.212155 0.875291 255 255 255
0.135048 -0.208438 0.879004 255 255 255
0.142777 -0.199996 0.880911 255 255 255
0.145999 -0.197293 0.880309 255 255 255
0.16184 -0.201951 0.884682 255 255 255
0.223664 -0.225672 0.903298 255 255 255
0.228098 -0.225872 0.903902 255 255 255
0.240096 -0.225389 0.906559 255 255 255
0.269905 -0.224203 0.911976 255 255 255
0.275676 -0.227006 0.914308 255 255 255
0.279174 -0.220412 0.913947 255 255 255
0.325358 -0.21047 0.920435 255 255 255
-0.351137 -0.161979 0.783995 255 255 255
-0.0901772 -0.164924 0.824525 255 255 255
-0.080311 -0.174301 0.828446 255 255 255
-0.0333247 -0.184105 0.841302 255 255 255
0.0221503 -0.180013 0.848827 255 255 255
0.0210026 -0.175855 0.847257 255 255 255
0.0304397 -0.177751 0.850411 255 255 255
0.0350367 -0.177168 0.850762 255 255 255
0.0575419 -0.18107 0.856795 255 255 255
0.0817675 -0.185401 0.861671 255 255 255
0.0817675 -0.185401 0.861671 255 255 255
0.0773661 -0.17991 0.860071 255 255 255
0.137198 -0.187621 0.8745 255 255 255
0.140361 -0.19205 0.877024 255 255 255
0.140361 -0.19205 0.877024 255 255 255
0.133763 -0.179079 0.871731 255 255 255
0.135571 -0.172871 0.871594 255 255 255
0.220671 -0.179894 0.890898 255 255 255
0.220671 -0.179894 0.890898 255 255 255
0.230398 -0.183867 0.894121 255 255 255
0.243769 -0.183072 0.896461 255 255 255
0.243779 -0.183074 0.896474 255 255 255
0.305902 -0.19656 0.913294 255 255 255
0.319314 -0.204201 0.917949 255 255 255
0.358425 -0.201674 0.924515 255 255 255
0.358388 -0.193187 0.922403 255 255 255
0.364175 -0.199054 0.924609 255 255 255
0.363797 -0.193678 0.92355 255 255 255
0.377392 -0.200718 0.927906 255 255 255
0.452622 -0.209814 0.945152 255 255 255
-0.219001 -0.140165 0.794537 255 255 255
-0.178692 -0.134995 0.800465 255 255 255
-0.0981822 -0.156385 0.823914 255 255 255
-0.0109763 -0.152667 0.828852 255 255 255
-0.00671339 -0.151845 0.830348 255 255 255
-0.00903543 -0.150182 0.828815 255 255 255
-0.0169087 -0.141778 0.825318 255 255 255
-0.0169087 -0.141778 0.825318 255 255 255
0.0423386 -0.154926 0.848337 255 255 255
0.0422882 -0.154996 0.848322 255 255 255
0.058176 -0.154711 0.849662 255 255 255
0.193138 -0.163317 0.881027 255 255 255
0.222259 -0.177721 0.890877 255 255 255
0.223989 -0.175571 0.890948 255 255 255
0.236366 -0.173364 0.892435 255 255 255
0.250397 -0.172176 0.89504 255 255 255
0.248794 -0.16757 0.893443 255 255 255
0.233634 -0.165672 0.890122 255 255 255
0.25189 -0.163782 0.893004 255 255 255
0.256212 -0.159486 0.892242 255 255 255
0.276222 -0.165271 0.898497 255 255 255
0.286344 -0.1582 0.898716 255 255 255
0.358633 -0.172946 0.917279 255 255 255
0.378004 -0.165587 0.9188 255 255 255
0.433466 -0.16718 0.929346 255 255 255
0.43616 -0.165865 0.929644 255 255 255
0.445936 -0.177002 0.935283 255 255 255
0.440097 -0.168765 0.931193 255 255 255
-0.0363036 -0.131256 0.82626 255 255 255
-0.0172156 -0.138743 0.827024 255 255 255
-0.00858768 -0.132112 0.823938 255 255 255
0.0241407 -0.125605 0.847732 255 255 255
0.0238668 -0.121848 0.846554 255 255 255
0.0537442 -0.133938 0.855784 255 255 255
0.0709997 -0.142532 0.851508 255 255 255
0.0627372 -0.131129 0.857363 255 255 255
0.0628019 -0.131089 0.857071 255 255 255
0.0925936 -0.143532 0.856149 255 255 255
0.095383 -0.143821 0.857162 255 255 255
0.115692 -0.143995 0.853327 255 255 255
0.118017 -0.123924 0.84811 255 255 255
0.148094 -0.136151 0.864318 255 255 255
0.150774 -0.125672 0.862931 255 255 255
0.164163 -0.136447 0.868514 255 255 255
0.264761 -0.152907 0.892747 255 255 255
0.286221 -0.148436 0.895991 255 255 255
0.306355 -0.137437 0.897468 255 255 255
0.38062 -0.142649 0.913167 255 255 255
0.394181 -0.156389 0.919285 255 255 255
0.408143 -0.157251 0.921927 255 255 255
0.408141 -0.157243 0.921927 255 255 255
0.4136 -0.157604 0.922922 255 255 255
0.413591 -0.157582 0.922919 255 255 255
0.425156 -0.150772 0.92321 255 255 255
0.472904 -0.160561 0.935539 255 255 255
0.459676 -0.147814 0.930162 255 255 255
0.478477 -0.150189 0.933577 255 255 255
0.501761 -0.147457 0.937315 255 255 255
-0.253023 -0.0899084 0.77435 255 255 255
0.0155038 -0.108254 0.841576 255 255 255
0.0144895 -0.104197 0.840688 255 255 255
0.0235786 -0.106851 0.84277 255 255 255
0.0475321 -0.10957 0.84436 255 255 255
0.0561618 -0.108788 0.845981 255 255 255
0.0773051 -0.118931 0.856047 255 255 255
0.101145 -0.103783 0.84673 255 255 255
0.137049 -0.121962 0.85425 255 255 255
0.165762 -0.107314 0.860711 255 255 255
0.185187 -0.124562 0.869268 255 255 255
0.185233 -0.124595 0.869276 255 255 255
0.182393 -0.120153 0.86757 255 255 255
0.284788 -0.10832 0.885199 255 255 255
0.290972 -0.107905 0.886321 255 255 255
0.290972 -0.107905 0.886321 255 255 255
0.335768 -0.118587 0.898745 255 255 255
0.358641 -0.116984 0.902122 255 255 255
0.358696 -0.113128 0.901149 255 255 255
0.364175 -0.125817 0.905413 255 255 255
0.501823 -0.129855 0.932769 255 255 255
0.501823 -0.129855 0.932769 255 255 255
0.0432863 -0.0891912 0.842202 255 255 255
0.0432863 -0.0891912 0.842202 255 255 255
0.0596172 -0.0879814 0.844936 255 255 255
0.0596172 -0.0879814 0.844936 255 255 255
0.358828 -0.0878679 0.894468 255 255 255
0.377971 -0.0943014 0.899688 255 255 255
-0.268396 -0.0516202 0.761823 255 255 255
0.00116182 -0.0533877 0.69786 255 255 255
0.0655471 -0.0757587 0.844038 255 255 255
0.150502 -0.0721496 0.848952 255 255 255
0.306414 -0.0829152 0.882764 255 255 255
0.325825 -0.0733313 0.884152 255 255 255
0.378404 -0.0812547 0.896512 255 255 255
-0.346102 -0.025582 0.740055 255 255 255
-0.213835 -0.0428727 0.770693 255 255 255
0.326271 -0.043437 0.876427 255 255 255
0.326188 -0.0360843 0.874386 255 255 255
0.358795 -0.0589564 0.887059 255 255 255
0.378448 -0.0551933 0.88967 255 255 255
-0.347486 -0.0058075 0.735174 255 255 255
-0.2706 -0.0230784 0.753876 255 255 255
-0.194908 -0.0051862 0.764343 255 255 255
-0.154222 -0.0123443 0.773979 255 255 255
-0.147682 -0.0101893 0.774706 255 255 255
-0.127703 -0.010213 0.778502 255 255 255
-0.122888 -0.0154077 0.780955 255 255 255
-0.110952 -0.00846559 0.781717 255 255 255
0.149499 -0.0130926 0.719849 255 255 255
0.278866 -0.0114643 0.858497 255 255 255
0.309293 -0.0243999 0.867897 255 255 255
0.358707 -0.0319518 0.879472 255 255 255
0.3785 -0.0358913 0.884577 255 255 255
-0.263242 0.0012298 0.749105 255 255 255
-0.207083 0.00187393 0.759479 255 255 255
-0.191292 0.00581601 0.762507 255 255 255
0.263639 0.00730648 0.850662 255 255 255
0.280336 0.00146755 0.855665 255 255 255
0.280144 0.0104683 0.853268 255 255 255
0.306728 -0.0102977 0.863743 255 255 255
0.306686 -0.00212501 0.861586 255 255 255
0.453644 0.0114563 0.885812 255 255 255
0.453685 0.0113982 0.885972 255 255 255
-0.302388 0.0244848 0.735417 255 255 255
-0.0153992 0.0213574 0.678288 255 255 255
0.237911 0.0218277 0.841933 255 255 255
0.237868 0.021832 0.84195 255 255 255
0.24077 0.0193984 0.843235 255 255 255
0.305679 0.023255 0.855085 255 255 255
0.319228 0.0175034 0.858618 255 255 255
0.322762 0.0227949 0.858264 255 255 255
0.367927 0.0145756 0.869023 255 255 255
0.369476 0.0259516 0.866143 255 255 255
0.381589 0.0177432 0.870827 255 255 255
0.381572 0.0178157 0.87079 255 255 255
-0.352201 0.0393844 0.721873 255 255 255
-0.338744 0.0401277 0.724339 255 255 255
-0.145154 0.0546152 0.75857 255 255 255
-0.136869 0.0484962 0.761848 255 255 255
-0.110753 0.0404755 0.769087 255 255 255
-0.10347 0.0446283 0.768609 255 255 255
-0.108411 0.0512389 0.766754 255 255 255
-0.00749107 0.0270797 0.678816 255 255 255
0.243442 0.0531863 0.835042 255 255 255
0.38606 0.0365358 0.867299 255 255 255
-0.304135 0.0605102 0.725301 255 255 255
-0.203154 0.0706024 0.743017 255 255 255
0.220331 0.0628946 0.827803 255 255 255
0.239625 0.0647694 0.831224 255 255 255
0.220099 0.0731887 0.825085 255 255 255
0.226192 0.0760059 0.825753 255 255 255
0.226228 0.0760703 0.826065 255 255 255
0.230332 0.0721511 0.827675 255 255 255
0.25321 0.0653965 0.833555 255 255 255
0.25559 0.0667819 0.833654 255 255 255
0.256227 0.0810626 0.82978 255 255 255
0.25624 0.0810487 0.829823 255 255 255
0.275876 0.0671812 0.837122 255 255 255
0.288214 0.0605993 0.841634 255 255 255
0.288223 0.0606068 0.841646 255 255 255
0.319731 0.0740753 0.84397 255 255 255
0.324899 0.0778673 0.844057 255 255 255
0.364386 0.0810836 0.850674 255 255 255
0.437525 0.0712118 0.867444 255 255 255
0.450749 0.0616436 0.872781 255 255 255
0.45109 0.0761731 0.869055 255 255 255
0.462974 0.0668307 0.873867 255 255 255
0.467613 0.07456 0.872938 255 255 255
0.469989 0.0765473 0.872895 255 255 255
0.469989 0.0765473 0.872895 255 255 255
0.473163 0.0761313 0.873332 255 255 255
0.288543 0.0853182 0.833529 255 255 255
0.292338 0.102263 0.831277 255 255 255
0.300862 0.0862366 0.837203 255 255 255
0.400083 0.090098 0.855345 255 255 255
0.405498 0.0863534 0.857465 255 255 255
0.474439 0.0871104 0.870884 255 255 255
0.286813 0.113981 0.826736 255 255 255
0.292306 0.106255 0.830234 255 255 255
0.292326 0.106248 0.830174 255 255 255
0.339976 0.128942 0.833218 255 255 255
0.4001 0.110763 0.850097 255 255 255
0.284175 0.134494 0.821165 255 255 255
0.292762 0.143637 0.82023 255 255 255
0.303235 0.147521 0.821309 255 255 255
0.362633 0.137683 0.835918 255 255 255
0.397502 0.139599 0.841834 255 255 255
0.13226 0.167553 0.781729 255 255 255
0.3495 0.178218 0.822658 255 255 255
0.218152 0.210882 0.798487 255 255 255
0.243026 0.209825 0.803384 255 255 255
0.241259 0.211675 0.802449 255 255 255
0.252462 0.213768 0.804114 255 255 255
0.288035 0.207973 0.801868 255 255 255
0.349957 0.218868 0.81187 255 255 255
0.378939 0.219987 0.817379 255 255 255
-0.182483 0.197076 0.713696 255 255 255
-0.168372 0.194556 0.717079 255 255 255
-0.141367 0.211007 0.718459 255 255 255
0.246011 0.228147 0.789073 255 255 255
0.246011 0.228147 0.789073 255 255 255
0.251457 0.23538 0.788535 255 255 255
0.284928 0.215908 0.799326 255 255 255
0.383272 0.232693 0.814857 255 255 255
0.408138 0.230594 0.81998 255 255 255
-0.0159744 0.196651 0.625567 255 255 255
-0.0117904 0.207213 0.623794 255 255 255
0.243568 0.258343 0.781095 255 255 255
0.271984 0.260562 0.786158 255 255 255
0.370608 0.26999 0.801966 255 255 255
0.360365 0.275564 0.792742 255 255 255
-0.3043 0.245231 0.671375 255 255 255
-0.235261 0.248168 0.684411 255 255 255
-0.168335 0.251288 0.696748 255 255 255
-0.302115 -0.255884 0.805135 255 255 255
0.137207 -0.278643 0.900839 255 255 255
0.164002 -0.286976 0.908686 255 255 255
-0.323983 -0.221651 0.795375 255 255 255
-0.167931 -0.237617 0.82812 255 255 255
-0.166624 -0.227922 0.826325 255 255 255
0.061205 -0.238233 0.863008 255 255 255
-0.395546 -0.187437 0.772107 255 255 255
-0.374853 -0.192717 0.778181 255 255 255
-0.133319 -0.200344 0.825239 255 255 255
0.0137607 -0.223383 0.853718 255 255 255
0.0796089 -0.228606 0.870608 255 255 255
-0.317927 -0.179865 0.786455 255 255 255
-0.293384 -0.187521 0.792701 255 255 255
-0.293347 -0.187497 0.792516 255 255 255
-0.142748 -0.194134 0.822615 255 255 255
0.141051 -0.2075 0.882081 255 255 255
0.167959 -0.20656 0.88744 255 255 255
0.383838 -0.214933 0.932259 255 255 255
-0.255704 -0.165826 0.794031 255 255 255
-0.202436 -0.151318 0.799851 255 255 255
-0.181769 -0.157917 0.806029 255 255 255
0.218272 -0.190968 0.893705 255 255 255
0.226698 -0.18346 0.892907 255 255 255
0.226698 -0.18346 0.892907 255 255 255
0.252314 -0.189547 0.900417 255 255 255
0.37464 -0.205907 0.92854 255 255 255
-0.0581016 -0.157695 0.828958 255 255 255
-0.00012281 -0.141217 0.827747 255 255 255
0.222671 -0.169851 0.888977 255 255 255
0.211239 -0.155183 0.88272 255 255 255
0.266085 -0.158308 0.894368 255 255 255
-0.0999726 -0.117855 0.821271 255 255 255
-0.0811419 -0.124713 0.816476 255 255 255
-0.0382753 -0.133795 0.827716 255 255 255
0.14709 -0.130367 0.862483 255 255 255
0.273927 -0.149794 0.893245 255 255 255
0.332044 -0.148608 0.906262 255 255 255
0.438692 -0.163037 0.928965 255 255 255
-0.079782 -0.107858 0.812356 255 255 255
0.164829 -0.122076 0.864901 255 255 255
0.308892 -0.127247 0.895215 255 255 255
0.0407644 -0.0863468 0.841866 255 255 255
0.0368709 -0.0773105 0.839188 255 255 255
0.15111 -0.0777707 0.850618 255 255 255
0.33531 -0.0646515 0.883964 255 255 255
-0.390142 -0.031282 0.733698 255 255 255
-0.267922 -0.0409397 0.759245 255 255 255
-0.202177 -0.0357177 0.771305 255 255 255
0.322981 -0.0556295 0.879124 255 255 255
0.41067 0.00819316 0.878735 255 255 255
-0.361074 0.0188393 0.72517 255 255 255
-0.329317 0.0258444 0.730028 255 255 255
-0.125766 0.0327217 0.767803 255 255 255
0.155168 0.020229 0.709585 255 255 255
-0.144874 0.0490305 0.760234 255 255 255
-0.144874 0.0490305 0.760234 255 255 255
0.213243 0.0520423 0.828937 255 255 255
0.228341 0.055726 0.831212 255 255 255
0.225795 0.0588328 0.829722 255 255 255
0.225795 0.0588328 0.829722 255 255 255
0.246013 0.0508836 0.835509 255 255 255
0.460261 0.0602236 0.874571 255 255 255
-0.293821 0.0675052 0.726269 255 255 255
-0.265476 0.06012 0.733232 255 255 255
-0.0379834 0.076012 0.773808 255 255 255
0.281466 0.0635315 0.839433 255 255 255
-0.230661 0.0905522 0.731925 255 255 255
0.259077 0.0822851 0.830077 255 255 255
0.298721 0.0921652 0.834788 255 255 255
0.405526 0.0911432 0.856272 255 255 255
-0.0381417 0.116397 0.763318 255 255 255
0.381433 0.10967 0.846181 255 255 255
0.388878 0.11029 0.849707 255 255 255
0.406032 0.130742 0.846078 255 255 255
-0.182848 0.124996 0.732801 255 255 255
0.12406 0.138476 0.787231 255 255 255
0.124055 0.138459 0.787044 255 255 255
0.285141 0.149621 0.816483 255 255 255
0.295371 0.134839 0.823317 255 255 255
0.291855 0.147011 0.819306 255 255 255
0.340245 0.148507 0.828292 255 255 255
0.394903 0.147251 0.839562 255 255 255
0.404692 0.134151 0.844761 255 255 255
-0.175275 0.146439 0.727062 255 255 255
-0.123866 0.145296 0.749627 255 255 255
-0.122207 0.1481 0.749609 255 255 255
0.130767 0.165483 0.781742 255 255 255
0.39784 0.154025 0.838463 255 255 255
0.115494 0.179305 0.774403 255 255 255
0.317305 0.194447 0.811733 255 255 255
0.340511 0.189121 0.81835 255 255 255
0.365672 0.196488 0.820759 255 255 255
-0.329746 0.173378 0.701189 255 255 255
-0.287179 0.18265 0.696889 255 255 255
-0.0369661 0.198804 0.742728 255 255 255
0.32895 0.209695 0.810283 255 255 255
0.344168 0.218573 0.811127 255 255 255
0.368303 0.19909 0.820516 255 255 255
0.374788 0.199414 0.821161 255 255 255
0.371428 0.211791 0.817902 255 255 255
-0.129275 0.199303 0.734323 255 255 255
0.13546 0.220779 0.768468 255 255 255
0.222023 0.231729 0.782939 255 255 255
0.299032 0.229365 0.799108 255 255 255
0.310385 0.238001 0.799287 255 255 255
0.347404 0.23105 0.80848 255 255 255
0.372652 0.231918 0.813124 255 255 255
0.0741034 0.235329 0.761313 255 255 255
0.224698 0.233918 0.783037 255 255 255
-0.277433 -0.26212 0.81449 255 255 255
-0.213853 -0.267938 0.828531 255 255 255
-0.32575 -0.246038 0.802209 255 255 255
-0.0618681 -0.271304 0.856964 255 255 255
0.01155 -0.240258 0.861614 255 255 255
-0.364549 -0.192745 0.779646 255 255 255
-0.361964 -0.190091 0.780415 255 255 255
-0.208724 -0.197787 0.811424 255 255 255
0.00769049 -0.224641 0.854854 255 255 255
-0.276959 -0.175494 0.79278 255 255 255
-0.019143 -0.198437 0.83863 255 255 255
0.0358044 -0.208177 0.854932 255 255 255
0.264523 -0.21034 0.908063 255 255 255
-0.277152 -0.162359 0.789417 255 255 255
0.0420631 -0.182648 0.852021 255 255 255
0.167931 -0.187599 0.882346 255 255 255
-0.256047 -0.131003 0.785227 255 255 255
-0.299543 -0.113582 0.772621 255 255 255
-0.058027 -0.131348 0.822774 255 255 255
-0.0579829 -0.126861 0.820919 255 255 255
-0.0579829 -0.126861 0.820919 255 255 255
0.0194128 -0.11911 0.846416 255 255 255
0.0208376 -0.111739 0.841185 255 255 255
0.0476017 -0.121282 0.850613 255 255 255
0.181927 -0.115789 0.866343 255 255 255
0.18194 -0.115755 0.866167 255 255 255
0.310054 -0.105593 0.889638 255 255 255
0.365396 -0.0869759 0.895097 255 255 255
-0.276311 -0.0533608 0.76047 255 255 255
-0.255666 -0.0446128 0.76247 255 255 255
-0.199593 -0.0579068 0.777055 255 255 255
0.165256 -0.0762854 0.853189 255 255 255
0.33197 -0.0810526 0.887672 255 255 255
0.384506 -0.0859203 0.898854 255 255 255
-0.276377 -0.0370979 0.756476 255 255 255
-0.219457 -0.0283283 0.765359 255 255 255
0.145398 -0.0408584 0.726111 255 255 255
-0.202552 -0.0209747 0.766963 255 255 255
0.323145 -0.00829625 0.866555 255 255 255
-0.341473 0.026352 0.72713 255 255 255
0.264815 0.0144666 0.849347 255 255 255
0.27552 0.0694016 0.83763 255 255 255
0.407265 0.0758495 0.860243 255 255 255
0.466495 0.06866 0.874146 255 255 255
-0.191159 0.0870185 0.740979 255 255 255
-0.176659 0.0877725 0.743303 255 255 255
0.0608368 0.0730253 0.741083 255 255 255
0.405182 0.0961184 0.854953 255 255 255
0.405199 0.0960653 0.85497 255 255 255
-0.281584 0.109005 0.717291 255 255 255
-0.185741 0.113155 0.7351 255 255 255
0.294314 0.108558 0.830175 255 255 255
0.317489 0.106904 0.835092 255 255 255
-0.182387 0.120125 0.734129 255 255 255
0.342733 0.151372 0.828125 255 255 255
0.318648 0.170634 0.818431 255 255 255
-0.173795 0.169602 0.721996 255 255 255
-0.236087 0.184256 0.706618 255 255 255
-0.212475 0.170969 0.713934 255 255 255
-0.373386 0.186147 0.689028 255 255 255
-0.0831538 0.212171 0.729226 255 255 255
0.294979 0.23091 0.797861 255 255 255
-0.226757 0.213954 0.700436 255 255 255
0.371983 0.262544 0.80445 255 255 255
-0.157471 0.232023 0.709858 255 255 255
0.265481 0.258939 0.785521 255 255 255
-0.277663 -0.24158 0.809572 255 255 255
-0.388689 -0.192499 0.774583 255 255 255
0.384669 -0.254998 0.943352 255 255 255
-0.398793 -0.172762 0.767515 255 255 255
0.236627 -0.222899 0.904624 255 255 255
0.278231 -0.222421 0.914168 255 255 255
0.366832 -0.20237 0.925857 255 255 255
0.0550145 -0.156819 0.847154 255 255 255
-0.259141 -0.0968758 0.775717 255 255 255
-0.0188527 -0.11366 0.820304 255 255 255
0.151161 -0.03921 0.726732 255 255 255
-0.272992 -0.014757 0.751457 255 255 255
-0.191095 0.0532145 0.749042 255 255 255
-0.167012 0.0428878 0.757321 255 255 255
-0.0837661 0.0485501 0.771751 255 255 255
-0.312175 0.0677764 0.723935 255 255 255
0.243579 0.0791639 0.828455 255 255 255
0.243579 0.0791639 0.828455 255 255 255
0.376452 0.189684 0.824752 255 255 255
0.114495 0.201859 0.76724 255 255 255
0.150805 0.204123 0.777761 255 255 255
-0.306338 0.19554 0.690238 255 255 255
-0.29738 0.187044 0.693908 255 255 255
-0.362782 -0.215978 0.787221 255 255 255
-0.243374 -0.232478 0.813038 255 255 255
0.00934247 -0.195437 0.850333 255 255 255
0.213932 -0.211943 0.897555 255 255 255
0.256199 -0.209544 0.904519 255 255 255
-0.12768 -0.176348 0.820581 255 255 255
0.0134972 -0.184225 0.844518 255 255 255
0.0642091 -0.186253 0.855763 255 255 255
-0.216051 -0.0498444 0.771952 255 255 255
0.342419 -0.0461818 0.880404 255 255 255
-0.132978 0.0207894 0.768926 255 255 255
-0.299884 0.0388805 0.731637 255 255 255
-0.299893 0.0388435 0.731605 255 255 255
-0.327973 0.0550193 0.722288 255 255 255
0.165073 0.214485 0.654717 255 255 255
0.293203 0.274833 0.780408 255 255 255
-0.161829 -0.240359 0.829792 255 255 255
-0.103862 -0.188904 0.82748 255 255 255
0.254238 -0.1711 0.896117 255 255 255
0.0794153 -0.140409 0.852048 255 255 255
0.0793803 -0.140473 0.8515 255 255 255
-0.0566173 -0.111111 0.81969 255 255 255
0.323052 -0.0291107 0.871646 255 255 255
-0.357366 0.0136503 0.727565 255 255 255
0.27564 -0.0103313 0.858512 255 255 255
-0.139231 0.0559081 0.759784 255 255 255
0.228107 0.108807 0.827832 255 255 255
0.292636 0.269293 0.785358 255 255 255
0.292636 0.269293 0.785358 255 255 255
-0.380986 -0.191841 0.776403 255 255 255
-0.320629 0.1024 0.722291 255 255 255
0.235438 0.215392 0.800039 255 255 255
-0.248635 -0.272546 0.82359 255 255 255
0.337786 -0.17022 0.912414 255 255 255
-0.347781 0.0295076 0.72507 255 255 255
-0.214498 0.0734991 0.738094 255 255 255
-0.214498 0.0734991 0.738094 255 255 255
-0.19935 0.136958 0.727125 255 255 255
0.305814 -0.26131 0.930392 255 255 255
-0.1184 -0.172629 0.821126 255 255 255
0.213188 -0.161786 0.884876 255 255 255
0.456334 -0.158 0.931826 255 255 255
-0.133011 0.0362436 0.765641 255 255 255
-0.227256 0.103286 0.729393 255 255 255
-0.207049 0.153067 0.720246 255 255 255
-0.206392 0.17944 0.713386 255 255 255
-0.216929 -0.206814 0.812427 255 255 255
-0.167255 -0.194888 0.818061 255 255 255
0.322615 -0.232056 0.925904 255 255 255
0.322615 -0.232056 0.925904 255 255 255
0.322688 -0.226792 0.924754 255 255 255
-0.424217 -0.112082 0.747277 255 255 255
-0.21378 -0.13389 0.793542 255 255 255
0.0655721 -0.144911 0.850954 255 255 255
0.315928 0.16766 0.819082 255 255 255
-0.282027 0.18258 0.69737 255 255 255
-0.357095 0.206298 0.67843 255 255 255
-0.259232 -0.176616 0.796234 255 255 255
-0.423974 -0.053688 0.731985 255 255 255
-0.423915 -0.0364843 0.727643 255 255 255
-0.415962 0.0544315 0.705013 255 255 255
0.32095 0.0155826 0.860134 255 255 255
-0.26249 0.145319 0.71068 255 255 255
-0.389717 0.183923 0.675571 255 255 255
-0.427498 -0.176074 0.762714 255 255 255
-0.0104525 -0.142833 0.826794 255 255 255
-0.365133 0.0547488 0.715211 255 255 255
-0.119357 0.149083 0.749343 255 255 255
-0.119336 0.149096 0.749329 255 255 255
0.0354862 -0.0836251 0.839656 255 255 255
-0.382066 0.196308 0.675862 255 255 255
-0.382066 0.196308 0.675862 255 255 255
-0.196072 0.251018 0.690999 255 255 255
0.351052 -0.0357103 0.881557 255 255 255
-0.0217471 -0.25777 0.861704 255 255 255
0.0956869 -0.269261 0.887048 255 255 255
-0.0955693 -0.222448 0.837661 255 255 255
-0.110134 -0.207944 0.831705 255 255 255
0.0372551 -0.215837 0.857154 255 255 255
0.0399068 -0.213626 0.858063 255 255 255
0.0918137 -0.218623 0.866438 255 255 255
0.102495 -0.218155 0.876427 255 255 255
-0.0611274 -0.200774 0.839496 255 255 255
-0.010806 -0.206707 0.843916 255 255 255
0.0030259 -0.200459 0.85171 255 255 255
-4.71242e-05 -0.193213 0.849288 255 255 255
0.00485385 -0.19923 0.852719 255 255 255
0.0399069 -0.206285 0.855652 255 255 255
0.05578 -0.211509 0.863552 255 255 255
0.0825262 -0.195611 0.863168 255 255 255
0.112883 -0.208369 0.868494 255 255 255
0.114904 -0.198633 0.867124 255 255 255
0.208403 -0.215805 0.897788 255 255 255
0.223568 -0.211941 0.899976 255 255 255
0.238891 -0.217057 0.904637 255 255 255
0.238898 -0.217091 0.904673 255 255 255
-0.0266768 -0.182474 0.840791 255 255 255
0.0780956 -0.193254 0.860874 255 255 255
0.0666172 -0.179378 0.85414 255 255 255
0.142092 -0.190744 0.87825 255 255 255
0.128037 -0.18382 0.871908 255 255 255
0.216769 -0.193247 0.89401 255 255 255
0.230892 -0.192114 0.896339 255 255 255
0.251313 -0.192286 0.900033 255 255 255
0.248548 -0.186293 0.898424 255 255 255
0.247123 -0.182388 0.896563 255 255 255
0.188172 -0.159519 0.879114 255 255 255
0.196621 -0.171328 0.883436 255 255 255
0.200189 -0.167954 0.884179 255 255 255
0.215301 -0.168076 0.886863 255 255 255
0.241767 -0.180691 0.895339 255 255 255
0.237294 -0.167278 0.891072 255 255 255
0.257243 -0.172777 0.896324 255 255 255
0.274197 -0.175592 0.900566 255 255 255
0.256634 -0.166895 0.894546 255 255 255
0.259085 -0.167299 0.895463 255 255 255
0.25768 -0.161952 0.893618 255 255 255
0.283808 -0.162341 0.899357 255 255 255
-0.00284832 -0.129603 0.827951 255 255 255
0.0266634 -0.148619 0.843151 255 255 255
0.0561929 -0.138662 0.855898 255 255 255
0.167801 -0.151769 0.873278 255 255 255
0.169306 -0.143685 0.871266 255 255 255
0.198124 -0.152199 0.87822 255 255 255
0.254631 -0.154617 0.890664 255 255 255
0.267222 -0.154344 0.893199 255 255 255
0.29804 -0.149019 0.898804 255 255 255
0.0615185 -0.128548 0.856277 255 255 255
0.0985908 -0.121497 0.850834 255 255 255
0.141841 -0.129763 0.860034 255 255 255
0.144741 -0.119596 0.859295 255 255 255
0.288726 -0.136896 0.893255 255 255 255
-0.201913 -0.0898116 0.784968 255 255 255
0.0561691 -0.108778 0.845952 255 255 255
0.0669745 -0.104461 0.84608 255 255 255
0.3201 -0.101973 0.890739 255 255 255
0.283566 -0.0858191 0.878364 255 255 255
-0.348321 -0.0322829 0.74136 255 255 255
-0.154719 -0.00864384 0.773103 255 255 255
0.267518 -0.000113605 0.853605 255 255 255
0.267518 -0.000113605 0.853605 255 255 255
0.265523 0.00190931 0.852157 255 255 255
0.280365 0.00141813 0.855724 255 255 255
0.308892 -0.00731813 0.8634 255 255 255
0.237075 0.0156242 0.843434 255 255 255
0.251608 0.00698019 0.848537 255 255 255
0.251608 0.00698019 0.848537 255 255 255
0.257582 0.00899939 0.849357 255 255 255
0.26186 0.00918051 0.850193 255 255 255
0.264384 0.0109165 0.849655 255 255 255
0.278102 0.00917735 0.85306 255 255 255
0.302442 0.0183146 0.855341 255 255 255
0.159518 0.0288113 0.708015 255 255 255
0.15845 0.0356252 0.706976 255 255 255
0.298649 0.0285209 0.852086 255 255 255
-0.321212 0.0401826 0.727979 255 255 255
0.234459 0.0531092 0.833004 255 255 255
0.217685 0.0625687 0.826986 255 255 255
0.245475 0.0521677 0.835432 255 255 255
0.244051 0.0562952 0.834193 255 255 255
-0.138209 0.0638432 0.757974 255 255 255
0.226135 0.0639087 0.82888 255 255 255
0.231286 0.0698145 0.828206 255 255 255
0.223476 0.0749808 0.825525 255 255 255
0.244826 0.0630358 0.832895 255 255 255
0.247899 0.0658909 0.832344 255 255 255
0.250719 0.0668947 0.832708 255 255 255
0.248045 0.0810357 0.828381 255 255 255
0.248012 0.0810385 0.828433 255 255 255
0.259467 0.0767337 0.831796 255 255 255
-0.207396 0.0932316 0.736799 255 255 255
-0.124354 0.140815 0.750779 255 255 255
0.113063 0.164252 0.778231 255 255 255
0.250527 0.212285 0.803994 255 255 255
0.280235 0.218917 0.797504 255 255 255
-0.0198881 -0.271683 0.865936 255 255 255
0.00405639 -0.267364 0.868426 255 255 255
-0.325348 -0.215418 0.793795 255 255 255
-0.00420636 -0.215691 0.853559 255 255 255
-0.157465 -0.20235 0.822427 255 255 255
-0.108101 -0.194193 0.828119 255 255 255
-0.108101 -0.194193 0.828119 255 255 255
0.011607 -0.193286 0.85065 255 255 255
0.130882 -0.209896 0.877621 255 255 255
0.27691 -0.217096 0.912383 255 255 255
-0.290419 -0.162296 0.786966 255 255 255
0.208589 -0.157136 0.882628 255 255 255
0.286248 -0.144118 0.895 255 255 255
0.325688 -0.156722 0.907015 255 255 255
0.0773541 -0.1189 0.855922 255 255 255
0.17012 -0.125783 0.867025 255 255 255
0.325542 -0.110408 0.893788 255 255 255
-0.15201 -0.0103984 0.773979 255 255 255
0.232709 0.0178062 0.842293 255 255 255
-0.10975 0.0292834 0.771915 255 255 255
-0.338393 0.0400223 0.723953 255 255 255
0.275788 0.0855952 0.831667 255 255 255
-0.361877 0.115804 0.709578 255 255 255
0.292863 0.137807 0.821613 255 255 255
-0.212004 0.146195 0.720959 255 255 255
-0.174778 0.146688 0.727368 255 255 255
-0.174416 0.171923 0.720262 255 255 255
0.250229 0.197657 0.807517 255 255 255
0.241249 0.211679 0.80247 255 255 255
0.248718 0.210028 0.803955 255 255 255
0.248705 0.209987 0.803898 255 255 255
0.11481 0.220081 0.763683 255 255 255
-0.245806 -0.253205 0.818684 255 255 255
-0.253707 -0.215462 0.808028 255 255 255
-0.0987628 -0.222205 0.837852 255 255 255
0.243662 -0.227224 0.907399 255 255 255
-0.309437 -0.184149 0.788818 255 255 255
0.00468376 -0.211044 0.855511 255 255 255
0.0438087 -0.208823 0.859274 255 255 255
0.232518 -0.211808 0.901705 255 255 255
-0.174281 -0.179127 0.813018 255 255 255
-0.179353 -0.172173 0.81018 255 255 255
0.247113 -0.172853 0.894869 255 255 255
-0.199824 -0.13547 0.796557 255 255 255
-0.00574421 -0.138394 0.826985 255 255 255
0.319089 -0.155629 0.904974 255 255 255
-0.276537 -0.110395 0.776001 255 255 255
-0.255635 -0.0610367 0.766607 255 255 255
0.306554 -0.0704879 0.879643 255 255 255
0.306596 -0.0307329 0.86894 255 255 255
-0.267194 0.00683082 0.746576 255 255 255
0.234881 0.0198585 0.842069 255 255 255
0.240663 0.0135206 0.845028 255 255 255
-0.366191 0.0448663 0.717508 255 255 255
-0.177303 0.0397633 0.755864 255 255 255
-0.260251 0.14351 0.712245 255 255 255
-0.236041 0.164785 0.711283 255 255 255
-0.180783 0.186879 0.716711 255 255 255
0.0626711 0.197001 0.770153 255 255 255
-0.249267 0.184046 0.704383 255 255 255
-0.174899 0.192648 0.715783 255 255 255
-0.284122 0.203874 0.691932 255 255 255
-0.376665 -0.282668 0.804983 255 255 255
-0.256416 -0.255671 0.817405 255 255 255
-0.289446 -0.182468 0.792312 255 255 255
-0.289446 -0.182468 0.792312 255 255 255
0.268276 -0.222529 0.910799 255 255 255
0.264458 -0.210209 0.908111 255 255 255
-0.273653 -0.162166 0.790173 255 255 255
0.0870473 -0.180381 0.860402 255 255 255
-0.259498 -0.130441 0.784298 255 255 255
-0.0281558 -0.13806 0.826629 255 255 255
-0.0578024 -0.0946443 0.81352 255 255 255
0.165135 -0.0850324 0.855397 255 255 255
0.000295796 -0.0473851 0.700101 255 255 255
-0.00293377 0.0145053 0.681238 255 255 255
-0.254815 0.0497189 0.738212 255 255 255
-0.164804 0.0491676 0.755988 255 255 255
0.200623 0.072788 0.821822 255 255 255
0.200623 0.072788 0.821822 255 255 255
-0.281381 0.150087 0.706179 255 255 255
-0.249544 0.16301 0.708816 255 255 255
-0.21774 0.185002 0.70913 255 255 255
-0.256894 0.203942 0.697179 255 255 255
-0.384385 -0.199818 0.776397 255 255 255
-0.343827 -0.212341 0.789478 255 255 255
0.189166 -0.227032 0.896207 255 255 255
-0.163417 -0.15757 0.810675 255 255 255
-0.0987347 -0.157295 0.823266 255 255 255
-0.0505726 -0.136113 0.823945 255 255 255
-0.0511186 -0.136459 0.825598 255 255 255
-0.384138 -0.0618637 0.741552 255 255 255
-0.281843 0.0277913 0.737947 255 255 255
0.216655 -0.221224 0.89918 255 255 255
-0.328825 -0.184037 0.783488 255 255 255
-0.354166 0.0479019 0.719576 255 255 255
-0.202437 0.0562065 0.748697 255 255 255
-0.336899 0.0842876 0.724986 255 255 255
-0.359616 0.110303 0.711633 255 255 255
-0.137056 0.128704 0.749903 255 255 255
-0.120219 0.167039 0.744477 255 255 255
-0.207471 -0.175783 0.806897 255 255 255
0.233341 0.0320637 0.841 255 255 255
0.109166 -0.148792 0.849337 255 255 255
-0.206225 -0.242537 0.822849 255 255 255
0.380849 -0.0696203 0.89386 255 255 255
0.361656 -0.0143029 0.875465 255 255 255
0.227784 0.0616418 0.829681 255 255 255
0.381067 0.0647635 0.858206 255 255 255
0.346899 0.190237 0.818723 255 255 255
0.380131 0.211708 0.819261 255 255 255
0.255427 0.211976 0.804985 255 255 255
0.374978 0.250578 0.808227 255 255 255
-0.213838 -0.289386 0.833989 255 255 255
-0.258423 -0.174634 0.795711 255 255 255
0.343631 -0.0949628 0.893545 255 255 255
0.385009 0.000794973 0.875907 255 255 255
0.336041 0.0966973 0.84183 255 255 255
0.300837 0.150152 0.819851 255 255 255
0.306349 -0.0588633 0.876383 255 255 255
0.096067 -0.212804 0.870613 255 255 255
-0.290347 0.0480996 0.731171 255 255 255
-0.0523363 -0.128844 0.823331 255 255 255
0.137793 -0.221 0.885682 255 255 255
0.114408 -0.203804 0.870243 255 255 255
-0.00952305 -0.239394 0.853309 255 255 255
-0.00820429 -0.210775 0.848048 255 255 255
0.148157 -0.200876 0.881297 255 255 255
