ply
format ascii 1.0
element vertex 1145
property float x
property float y
property float z
property uchar red
property uchar green
property uchar blue
end_header
0.0446684 -0.0183966 0.145182 255 255 255
0.0558664 -0.0185816 0.145422 255 255 255
0.0555775 -0.0172921 0.145368 255 255 255
0.0555827 -0.0172932 0.145377 255 255 255
0.0561774 -0.0173735 0.145338 255 255 255
0.0580758 -0.01799 0.145321 255 255 255
0.0579387 -0.0172211 0.14531 255 255 255
0.0604491 -0.0185925 0.145334 255 255 255
0.0608385 -0.0171505 0.145243 255 255 255
-0.0458511 -0.026738 0.143117 255 255 255
-0.0393148 -0.0257702 0.143409 255 255 255
-0.0245741 -0.0229532 0.137667 255 255 255
-0.00766477 -0.0232556 0.135875 255 255 255
-0.00929367 -0.0218659 0.135696 255 255 255
0.00118481 -0.0200006 0.135863 255 255 255
0.0233556 -0.0207569 0.14467 255 255 255
0.0289241 -0.0197663 0.144637 255 255 255
0.0291922 -0.0168793 0.144503 255 255 255
0.0311515 -0.0168879 0.144561 255 255 255
0.0330357 -0.0196236 0.144758 255 255 255
0.0347972 -0.0182597 0.144704 255 255 255
0.0347237 -0.0169961 0.144721 255 255 255
0.0368611 -0.0164846 0.144886 255 255 255
0.038371 -0.0160324 0.145018 255 255 255
0.0392885 -0.0160758 0.144983 255 255 255
0.0432573 -0.0170439 0.145268 255 255 255
0.046991 -0.018018 0.145115 255 255 255
0.0479595 -0.0165015 0.145197 255 255 255
0.0485342 -0.0149451 0.145024 255 255 255
0.0540293 -0.0157498 0.145035 255 255 255
0.0554935 -0.0152723 0.145007 255 255 255
0.0566744 -0.0143362 0.145028 255 255 255
0.0566737 -0.0143276 0.145044 255 255 255
0.0565295 -0.0139347 0.145023 255 255 255
0.0591535 -0.0154598 0.145112 255 255 255
0.0572465 -0.0147172 0.145078 255 255 255
0.0573096 -0.0142468 0.145111 255 255 255
0.0585318 -0.0150829 0.145066 255 255 255
0.0600622 -0.0161385 0.145165 255 255 255
0.0635851 -0.0150975 0.145192 255 255 255
0.0634677 -0.0146163 0.14516 255 255 255
0.0640236 -0.0147959 0.145209 255 255 255
0.0640248 -0.0148005 0.145213 255 255 255
0.0651104 -0.0145188 0.145092 255 255 255
0.062855 -0.0144726 0.145195 255 255 255
0.0627824 -0.0140755 0.145168 255 255 255
0.0645133 -0.0141627 0.14515 255 255 255
0.0645136 -0.014165 0.145149 255 255 255
0.0656974 -0.0136155 0.145182 255 255 255
-0.0620287 -0.0256779 0.142404 255 255 255
-0.0588188 -0.0263965 0.142564 255 255 255
-0.0531728 -0.0237382 0.14261 255 255 255
-0.0501853 -0.0222017 0.142654 255 255 255
-0.0496842 -0.0213597 0.142949 255 255 255
-0.045804 -0.0215027 0.142894 255 255 255
-0.0457663 -0.0214855 0.142842 255 255 255
-0.0408532 -0.0211732 0.14303 255 255 255
-0.0256714 -0.0201168 0.136321 255 255 255
-0.0237887 -0.0196616 0.137953 255 255 255
0.00996551 -0.018319 0.139276 255 255 255
0.0103521 -0.0176472 0.139339 255 255 255
0.0121596 -0.018245 0.139332 255 255 255
0.0205293 -0.0147624 0.138947 255 255 255
0.0282921 -0.0160368 0.144495 255 255 255
0.0289983 -0.0161293 0.144629 255 255 255
0.0298062 -0.0161357 0.144523 255 255 255
0.0327709 -0.0162199 0.14463 255 255 255
0.0371053 -0.016025 0.144812 255 255 255
0.0379265 -0.0152441 0.144993 255 255 255
0.0383769 -0.0132639 0.144618 255 255 255
0.0416588 -0.0139715 0.144833 255 255 255
0.0416429 -0.0139814 0.144864 255 255 255
0.0411681 -0.0132272 0.144702 255 255 255
0.041545 -0.0134906 0.144833 255 255 255
0.0455419 -0.0133258 0.144875 255 255 255
0.0457103 -0.012918 0.144949 255 255 255
0.0498411 -0.0126733 0.144892 255 255 255
0.0498411 -0.0126733 0.144892 255 255 255
0.0531014 -0.0133049 0.144946 255 255 255
0.054615 -0.0111924 0.14497 255 255 255
0.0574249 -0.0137828 0.145069 255 255 255
0.0574259 -0.0137825 0.145069 255 255 255
0.0590295 -0.012708 0.145053 255 255 255
0.05846 -0.0118216 0.144898 255 255 255
0.0583241 -0.0111095 0.145182 255 255 255
0.060939 -0.0131133 0.145109 255 255 255
0.0603321 -0.0126556 0.145194 255 255 255
0.0599135 -0.0123996 0.145163 255 255 255
0.0599135 -0.0123996 0.145163 255 255 255
0.062992 -0.0126367 0.145006 255 255 255
0.0628579 -0.0122981 0.145053 255 255 255
0.0648737 -0.012188 0.145152 255 255 255
0.0629094 -0.0109915 0.145022 255 255 255
0.0650408 -0.0104592 0.145042 255 255 255
-0.0735106 -0.021692 0.141759 255 255 255
-0.0725419 -0.0219197 0.141836 255 255 255
-0.0650474 -0.0201661 0.141923 255 255 255
-0.064868 -0.0193514 0.142092 255 255 255
-0.0557382 -0.0215948 0.142746 255 255 255
-0.0496944 -0.0205863 0.142593 255 255 255
-0.0500092 -0.0200115 0.142679 255 255 255
-0.0127823 -0.0150464 0.134331 255 255 255
0.006077 -0.012443 0.135242 255 255 255
0.0164017 -0.011253 0.139244 255 255 255
0.016883 -0.0115444 0.139384 255 255 255
0.0347117 -0.011631 0.144535 255 255 255
0.0413288 -0.00940462 0.144441 255 255 255
0.0425951 -0.00930045 0.144591 255 255 255
0.0439225 -0.0105722 0.144612 255 255 255
0.0439225 -0.0105722 0.144612 255 255 255
0.0451734 -0.0106549 0.144666 255 255 255
0.0451512 -0.0100106 0.144671 255 255 255
0.0451486 -0.0100139 0.144677 255 255 255
0.0487341 -0.0114152 0.145013 255 255 255
0.0511156 -0.0107908 0.144813 255 255 255
0.051114 -0.0107936 0.14484 255 255 255
0.0559579 -0.00952479 0.144797 255 255 255
0.0559543 -0.00952714 0.144818 255 255 255
0.0565212 -0.0084525 0.144745 255 255 255
0.059178 -0.00897833 0.144875 255 255 255
0.0583659 -0.0083639 0.145045 255 255 255
0.0588321 -0.00791059 0.145037 255 255 255
0.0613624 -0.00853792 0.144911 255 255 255
0.0615677 -0.00759038 0.144877 255 255 255
0.0615707 -0.0075921 0.144887 255 255 255
0.0653253 -0.00739934 0.145036 255 255 255
-0.0815434 -0.0165337 0.141212 255 255 255
-0.0735456 -0.0156065 0.141543 255 255 255
-0.062753 -0.0157275 0.141816 255 255 255
-0.0609768 -0.0151616 0.142112 255 255 255
-0.0608271 -0.0151828 0.14199 255 255 255
-0.0608355 -0.0142714 0.142002 255 255 255
-0.0607437 -0.0142393 0.141911 255 255 255
-0.0252863 -0.014467 0.13762 255 255 255
-0.0122061 -0.0112302 0.135229 255 255 255
-0.00862416 -0.0125333 0.135187 255 255 255
0.005445 -0.00945351 0.135531 255 255 255
0.00592219 -0.00940548 0.135723 255 255 255
0.00556784 -0.00896169 0.135671 255 255 255
0.00997139 -0.0108078 0.138985 255 255 255
0.0137814 -0.0113465 0.139256 255 255 255
0.0162547 -0.0108455 0.139327 255 255 255
0.013381 -0.00827528 0.139028 255 255 255
0.014393 -0.00870027 0.13901 255 255 255
0.015809 -0.00892379 0.138928 255 255 255
0.016329 -0.00866868 0.139097 255 255 255
0.0191068 -0.00765274 0.13914 255 255 255
0.0305061 -0.00920708 0.133276 255 255 255
0.0349939 -0.00695994 0.144529 255 255 255
0.036523 -0.00742036 0.144401 255 255 255
0.0374203 -0.00692677 0.144218 255 255 255
0.0405715 -0.007931 0.144435 255 255 255
0.04046 -0.00740591 0.144359 255 255 255
0.0419179 -0.00819989 0.144629 255 255 255
0.0442204 -0.00866976 0.144628 255 255 255
0.0422239 -0.00668145 0.144599 255 255 255
0.0436214 -0.00675555 0.144562 255 255 255
0.0453833 -0.00883651 0.14472 255 255 255
0.0453471 -0.00605149 0.144791 255 255 255
0.0481889 -0.0076534 0.144675 255 255 255
0.0479161 -0.00727931 0.144651 255 255 255
0.0502611 -0.00746835 0.144774 255 255 255
0.0499745 -0.00706762 0.144788 255 255 255
0.0498284 -0.00665244 0.144843 255 255 255
0.0498345 -0.00664574 0.144831 255 255 255
0.0498321 -0.00614332 0.144788 255 255 255
0.0522669 -0.00753322 0.144717 255 255 255
0.052675 -0.00691382 0.144679 255 255 255
0.0520031 -0.0059249 0.144883 255 255 255
0.0544495 -0.00739504 0.144617 255 255 255
0.0544508 -0.00738846 0.144621 255 255 255
0.0564006 -0.00725746 0.144756 255 255 255
0.0579715 -0.00747859 0.14487 255 255 255
0.0576136 -0.0071705 0.14483 255 255 255
0.0590575 -0.0071256 0.14493 255 255 255
0.0582935 -0.00710975 0.144901 255 255 255
0.0589999 -0.0064564 0.144899 255 255 255
0.0567748 -0.00650965 0.144675 255 255 255
0.0577357 -0.005759 0.144891 255 255 255
0.0582297 -0.00630254 0.144781 255 255 255
0.0615213 -0.00670778 0.144841 255 255 255
0.063153 -0.00737911 0.144937 255 255 255
0.0624375 -0.00634717 0.144842 255 255 255
0.0643951 -0.00607745 0.144853 255 255 255
0.0648302 -0.00623676 0.144871 255 255 255
0.0648253 -0.0062382 0.144842 255 255 255
0.0661223 -0.00662494 0.144865 255 255 255
-0.0784489 -0.0133583 0.141098 255 255 255
-0.0731811 -0.0132228 0.141547 255 255 255
-0.0646682 -0.0127207 0.141568 255 255 255
-0.068518 -0.0117255 0.141556 255 255 255
-0.0649306 -0.0116678 0.141668 255 255 255
-0.0594663 -0.011652 0.142021 255 255 255
-0.0594663 -0.011652 0.142021 255 255 255
-0.0642092 -0.0111508 0.141719 255 255 255
-0.0642062 -0.0111595 0.141717 255 255 255
-0.0585377 -0.0114671 0.141933 255 255 255
-0.0585377 -0.0114671 0.141933 255 255 255
-0.057479 -0.0113991 0.14187 255 255 255
-0.039306 -0.00867338 0.131546 255 255 255
-0.0238827 -0.00812193 0.138138 255 255 255
-0.014073 -0.00895376 0.135298 255 255 255
-0.014073 -0.00895376 0.135298 255 255 255
0.00710913 -0.00767885 0.135514 255 255 255
0.0105955 -0.00605061 0.139017 255 255 255
0.00990161 -0.00545313 0.138941 255 255 255
0.0128316 -0.007697 0.139063 255 255 255
0.0390321 -0.00555922 0.144666 255 255 255
0.0408346 -0.00611605 0.144274 255 255 255
0.0410372 -0.00532532 0.144279 255 255 255
0.0445421 -0.00375637 0.144282 255 255 255
0.0451561 -0.00531979 0.144452 255 255 255
0.0477607 -0.00545013 0.144571 255 255 255
0.0477607 -0.00545013 0.144571 255 255 255
0.0472676 -0.00303182 0.144363 255 255 255
0.0484814 -0.00533484 0.144708 255 255 255
0.0484814 -0.00533484 0.144708 255 255 255
0.0515996 -0.00354457 0.144562 255 255 255
0.0537826 -0.00339704 0.144347 255 255 255
0.0537826 -0.00339704 0.144347 255 255 255
0.0544329 -0.00322397 0.144363 255 255 255
0.0592757 -0.00374078 0.144567 255 255 255
0.0637403 -0.0034495 0.144654 255 255 255
0.0641814 -0.00209854 0.144653 255 255 255
0.0651755 -0.00278228 0.144623 255 255 255
0.0651562 -0.00277915 0.144778 255 255 255
0.0657941 -0.00300256 0.144559 255 255 255
0.065802 -0.00299198 0.144595 255 255 255
-0.032598 -0.00735517 0.136006 255 255 255
-0.0320529 -0.00708072 0.136739 255 255 255
-0.0336163 -0.00555221 0.135903 255 255 255
-0.0253984 -0.00542755 0.137411 255 255 255
-0.0243489 -0.00380329 0.136038 255 255 255
-0.0232543 -0.00352894 0.136571 255 255 255
-0.0159474 -0.0046802 0.134877 255 255 255
0.0155575 -0.003886 0.136903 255 255 255
0.0167334 -0.00428557 0.137639 255 255 255
0.0165682 -0.00387007 0.137554 255 255 255
0.0157392 -0.00233215 0.136926 255 255 255
0.0159603 -0.00151512 0.137494 255 255 255
0.0167613 -0.00206937 0.137425 255 255 255
0.0171402 -0.00267522 0.137482 255 255 255
0.0174273 -0.00196173 0.138428 255 255 255
0.0174273 -0.00196173 0.138428 255 255 255
0.0202157 -0.00204092 0.138997 255 255 255
0.0298358 -0.00239895 0.137505 255 255 255
0.0321176 -0.0014641 0.143901 255 255 255
0.0380219 -0.00183646 0.14412 255 255 255
0.0357903 -0.00111932 0.144032 255 255 255
0.0388603 -0.00256787 0.14402 255 255 255
0.0393334 -0.00253799 0.144119 255 255 255
0.039817 -0.00257577 0.144211 255 255 255
0.0398428 -0.00256224 0.144152 255 255 255
0.0408385 -0.000429625 0.144032 255 255 255
0.0424731 -0.000535701 0.1441 255 255 255
0.0427528 -0.000158253 0.144076 255 255 255
0.0431751 -0.000527635 0.144281 255 255 255
0.0470483 -0.00269382 0.144408 255 255 255
0.0456884 -0.000297275 0.144149 255 255 255
0.0495563 -0.00162589 0.144268 255 255 255
0.0520186 -0.00167513 0.144452 255 255 255
0.0530498 -0.000958329 0.144253 255 255 255
0.0516155 -0.000140264 0.144658 255 255 255
0.0533348 -0.000264593 0.144265 255 255 255
0.05403 -0.00191993 0.144472 255 255 255
0.0539484 -0.00153405 0.144285 255 255 255
0.0539484 -0.00153405 0.144285 255 255 255
0.0553231 -0.000544637 0.144412 255 255 255
0.0561343 -0.000224479 0.144286 255 255 255
0.0561631 0.000239009 0.144308 255 255 255
0.0573495 0.00069713 0.144301 255 255 255
0.0582744 0.000457514 0.144461 255 255 255
0.0609879 -0.00173675 0.144527 255 255 255
0.0610235 -0.00133972 0.144477 255 255 255
0.0598042 -0.00021348 0.144517 255 255 255
0.0630478 0.000756133 0.144418 255 255 255
0.063261 0.000450412 0.144469 255 255 255
0.0634426 0.000857355 0.14443 255 255 255
0.0651056 -0.00155094 0.144574 255 255 255
0.0648324 0.000492587 0.144431 255 255 255
-0.0922825 -0.00376019 0.138809 255 255 255
-0.0607459 -0.00103984 0.141283 255 255 255
-0.0522899 -0.00361157 0.141765 255 255 255
-0.0225119 -0.00299942 0.137428 255 255 255
-0.00294228 -0.00211664 0.13126 255 255 255
-0.00519348 -9.03003e-05 0.129739 255 255 255
-0.0041162 -4.34881e-05 0.129757 255 255 255
-0.00154498 0.000480117 0.131697 255 255 255
2.33849e-05 0.000377455 0.132954 255 255 255
0.00129113 0.00062492 0.133158 255 255 255
0.00127042 0.00062931 0.133197 255 255 255
0.00418085 -0.000808737 0.13521 255 255 255
0.00556927 -0.000322145 0.135362 255 255 255
0.00595865 -0.000816687 0.135419 255 255 255
0.0100339 -0.00145508 0.138733 255 255 255
0.0138263 0.00126469 0.138612 255 255 255
0.017584 0.000551771 0.138771 255 255 255
0.0257945 -6.71307e-06 0.138902 255 255 255
0.0320145 -0.000401723 0.143965 255 255 255
0.0348226 0.00234244 0.143684 255 255 255
0.0358488 -0.00015221 0.143873 255 255 255
0.037918 0.00130185 0.143775 255 255 255
0.0379257 0.00130235 0.143755 255 255 255
0.0365465 0.00183872 0.143733 255 255 255
0.0353444 0.00242474 0.14386 255 255 255
0.0364834 0.00276693 0.143757 255 255 255
0.0375011 0.00170143 0.143763 255 255 255
0.0379644 0.00173637 0.143845 255 255 255
0.0400904 0.00123419 0.143919 255 255 255
0.0392365 0.00183407 0.143891 255 255 255
0.0388513 0.00223701 0.143907 255 255 255
0.0405647 0.00156765 0.14388 255 255 255
0.0407642 0.00195586 0.143977 255 255 255
0.0409653 0.00255411 0.143949 255 255 255
0.0409816 0.00296931 0.144121 255 255 255
0.0422675 0.00103469 0.144032 255 255 255
0.0444471 0.00189713 0.144045 255 255 255
0.0432377 0.00240846 0.144147 255 255 255
0.0468115 0.00259041 0.144055 255 255 255
0.0483537 0.00146087 0.143912 255 255 255
0.0487327 0.00294806 0.144179 255 255 255
0.0498927 0.00320261 0.144249 255 255 255
0.0518405 0.00237122 0.144046 255 255 255
0.0525542 0.00295306 0.144054 255 255 255
0.0546622 0.00240891 0.144205 255 255 255
0.0566409 0.00245597 0.14419 255 255 255
0.0605834 0.00134571 0.14428 255 255 255
0.0605478 0.00226149 0.144304 255 255 255
0.0605478 0.00226149 0.144304 255 255 255
0.0600564 0.00271848 0.144282 255 255 255
0.059582 0.00327857 0.144484 255 255 255
0.0631112 0.00116312 0.144373 255 255 255
0.0638492 0.00138437 0.144476 255 255 255
0.0648395 0.00237011 0.144434 255 255 255
0.0662694 0.00192639 0.14439 255 255 255
-0.0698063 0.000291926 0.141029 255 255 255
-0.0615515 0.000519906 0.141439 255 255 255
-0.0578482 0.00119983 0.141223 255 255 255
-0.0569338 0.001124 0.141348 255 255 255
-0.0548881 0.00170856 0.141582 255 255 255
-0.0517941 0.00120823 0.141419 255 255 255
-0.0374464 0.00109344 0.136645 255 255 255
-0.0372642 0.00345682 0.133715 255 255 255
-0.0350601 5.68235e-05 0.13728 255 255 255
-0.0351883 0.000129143 0.137391 255 255 255
-0.030408 0.000461822 0.13643 255 255 255
-0.0296845 0.00310702 0.137617 255 255 255
-0.0232936 0.00138257 0.137802 255 255 255
-0.015931 0.00177465 0.134607 255 255 255
-0.00688336 0.00183149 0.131989 255 255 255
0.0207797 0.00361866 0.138762 255 255 255
0.0207747 0.00360878 0.138773 255 255 255
0.0229394 0.00360564 0.13889 255 255 255
0.0303002 0.00309356 0.135904 255 255 255
0.0282623 0.00495826 0.135909 255 255 255
0.0330934 0.00566425 0.143463 255 255 255
0.0380036 0.00338834 0.144155 255 255 255
0.0370678 0.00567958 0.143557 255 255 255
0.0452651 0.00338339 0.143943 255 255 255
0.0444877 0.0051384 0.143817 255 255 255
0.0527379 0.00396417 0.143948 255 255 255
0.0536974 0.00463625 0.143893 255 255 255
0.05424 0.00601865 0.14402 255 255 255
0.0553555 0.00554197 0.144045 255 255 255
0.055239 0.00613204 0.144036 255 255 255
0.0563186 0.00455935 0.143955 255 255 255
0.0588569 0.0037425 0.144143 255 255 255
0.0576226 0.00495523 0.144012 255 255 255
0.0584151 0.00540497 0.144016 255 255 255
0.0591426 0.00492633 0.143993 255 255 255
0.0612312 0.00405403 0.144166 255 255 255
0.0606452 0.00501935 0.144158 255 255 255
0.0606452 0.00501935 0.144158 255 255 255
0.0612643 0.00479168 0.144122 255 255 255
0.0612683 0.00478058 0.144 255 255 255
0.0599376 0.00562637 0.144116 255 255 255
0.0612085 0.00519072 0.144175 255 255 255
0.062666 0.00426798 0.144179 255 255 255
0.0641464 0.00489501 0.144235 255 255 255
0.0641464 0.00489501 0.144235 255 255 255
0.0615904 0.00587297 0.144148 255 255 255
0.0621956 0.0058368 0.144129 255 255 255
0.0641132 0.00539708 0.144262 255 255 255
0.0641132 0.00539708 0.144262 255 255 255
0.0651465 0.00436495 0.144246 255 255 255
-0.0762806 0.00518109 0.140495 255 255 255
-0.0677004 0.00748728 0.14054 255 255 255
-0.0611285 0.00405963 0.141295 255 255 255
0.00274156 0.00756316 0.132498 255 255 255
0.0096849 0.00717866 0.133436 255 255 255
0.0273205 0.00714842 0.134227 255 255 255
0.033127 0.00751332 0.133942 255 255 255
0.033151 0.00618033 0.143413 255 255 255
0.0338059 0.0064762 0.143529 255 255 255
0.0376695 0.00665906 0.143637 255 255 255
0.0360668 0.00771396 0.143748 255 255 255
0.0377891 0.00777708 0.143361 255 255 255
0.0368966 0.00838765 0.143485 255 255 255
0.0386936 0.00684481 0.143717 255 255 255
0.0380668 0.00853661 0.143526 255 255 255
0.041826 0.00661444 0.143709 255 255 255
0.0471387 0.00705352 0.143865 255 255 255
0.0469608 0.00811822 0.143272 255 255 255
0.0477552 0.0082895 0.143437 255 255 255
0.047995 0.00866369 0.143697 255 255 255
0.0484509 0.0088903 0.143732 255 255 255
0.0523072 0.00641721 0.143778 255 255 255
0.0507055 0.00786199 0.143929 255 255 255
0.0519426 0.00868741 0.143846 255 255 255
0.0554865 0.00714136 0.144209 255 255 255
0.0535968 0.00888384 0.143803 255 255 255
0.0531794 0.00913996 0.14368 255 255 255
0.0565167 0.0069967 0.143924 255 255 255
0.0559419 0.008756 0.143944 255 255 255
0.0559303 0.00922543 0.143865 255 255 255
-0.09202 0.0112152 0.138346 255 255 255
-0.0757165 0.00883028 0.140252 255 255 255
-0.0657203 0.010714 0.14027 255 255 255
-0.0405691 0.0107939 0.128303 255 255 255
-0.0405666 0.0107902 0.128296 255 255 255
-0.0384694 0.0104053 0.128399 255 255 255
-0.0364538 0.0109056 0.128452 255 255 255
-0.0360108 0.00757989 0.132312 255 255 255
-0.00797085 0.0107549 0.129432 255 255 255
-0.00706007 0.0104573 0.129367 255 255 255
-0.00624178 0.0104409 0.129407 255 255 255
0.00105511 0.0102814 0.129716 255 255 255
0.010582 0.00947891 0.132236 255 255 255
0.0105142 0.00948562 0.13234 255 255 255
0.0161858 0.010786 0.12999 255 255 255
0.0186828 0.00936872 0.135752 255 255 255
0.0232413 0.00998539 0.130262 255 255 255
0.0271706 0.00864772 0.132893 255 255 255
0.0295027 0.0107866 0.130398 255 255 255
0.03543 0.00978549 0.143306 255 255 255
0.0349935 0.0110274 0.143252 255 255 255
0.0354865 0.0106614 0.143334 255 255 255
0.0375721 0.0110456 0.1433 255 255 255
0.0372198 0.0120458 0.143176 255 255 255
0.0393694 0.00925607 0.143626 255 255 255
0.0393693 0.00925405 0.143632 255 255 255
0.0383611 0.0104128 0.14327 255 255 255
0.0390283 0.0100411 0.143323 255 255 255
0.0399576 0.0095803 0.143579 255 255 255
0.0402124 0.0115201 0.143445 255 255 255
0.0422164 0.0101653 0.143768 255 255 255
0.0426709 0.0101935 0.143945 255 255 255
0.0427625 0.01203 0.143824 255 255 255
0.0427588 0.0120293 0.143835 255 255 255
0.0477945 0.0100875 0.143258 255 255 255
0.0490976 0.00973753 0.143541 255 255 255
0.0501215 0.0105466 0.143651 255 255 255
0.0501215 0.0105466 0.143651 255 255 255
0.0525332 0.00970187 0.143726 255 255 255
0.0540555 0.0102803 0.143732 255 255 255
0.0532046 0.0118811 0.143709 255 255 255
0.0557079 0.0115877 0.143831 255 255 255
0.0557079 0.0115877 0.143831 255 255 255
0.0577165 0.0103593 0.143989 255 255 255
0.0580948 0.010781 0.143902 255 255 255
0.0584035 0.0116093 0.143736 255 255 255
0.0598836 0.0106402 0.143851 255 255 255
0.0596347 0.010957 0.14385 255 255 255
0.0596347 0.010957 0.14385 255 255 255
0.0619432 0.0100347 0.143878 255 255 255
-0.0749776 0.0141049 0.13987 255 255 255
-0.0725731 0.0131689 0.139986 255 255 255
-0.0761588 0.0159761 0.139738 255 255 255
-0.0653461 0.0140196 0.140276 255 255 255
-0.0677785 0.0152056 0.140108 255 255 255
-0.0629622 0.0140161 0.140388 255 255 255
-0.0414473 0.0119647 0.128169 255 255 255
-0.0322502 0.0116636 0.128729 255 255 255
-0.0315207 0.013074 0.128474 255 255 255
-0.0293573 0.0139405 0.1287 255 255 255
-0.0298652 0.0143434 0.128619 255 255 255
-0.0298678 0.0143402 0.128622 255 255 255
-0.0262407 0.011433 0.128911 255 255 255
-0.0115117 0.0142464 0.129214 255 255 255
-0.00708491 0.012032 0.129432 255 255 255
-0.00823771 0.0135253 0.1292 255 255 255
0.00475679 0.0113265 0.129886 255 255 255
0.00783827 0.0111874 0.129988 255 255 255
0.00653967 0.0130444 0.129925 255 255 255
0.0104516 0.0134945 0.129789 255 255 255
0.0126561 0.0129911 0.129881 255 255 255
0.0128739 0.0134275 0.129812 255 255 255
0.01619 0.0136977 0.129896 255 255 255
0.0173921 0.0130741 0.130186 255 255 255
0.02184 0.0133968 0.130096 255 255 255
0.0255048 0.0119974 0.130284 255 255 255
0.0284687 0.0130309 0.130379 255 255 255
0.0296228 0.0136712 0.130335 255 255 255
0.0316021 0.011121 0.130386 255 255 255
0.0334106 0.0115544 0.13058 255 255 255
0.0328247 0.0133406 0.130349 255 255 255
0.0366742 0.014446 0.143162 255 255 255
0.0391251 0.0123213 0.143486 255 255 255
0.0392742 0.0127252 0.143512 255 255 255
0.0399176 0.0122756 0.143439 255 255 255
0.0399932 0.0126803 0.143517 255 255 255
0.0408894 0.0122611 0.143617 255 255 255
0.0378052 0.014127 0.143241 255 255 255
0.0378052 0.014127 0.143241 255 255 255
0.0393367 0.013841 0.143411 255 255 255
0.0404213 0.0147463 0.143092 255 255 255
0.0473325 0.0122156 0.14378 255 255 255
0.0513813 0.0122249 0.143741 255 255 255
0.0524186 0.0124998 0.143962 255 255 255
0.0523631 0.0128911 0.143882 255 255 255
0.0514466 0.0129933 0.143979 255 255 255
0.0527827 0.0132406 0.143487 255 255 255
0.0500638 0.0136835 0.143489 255 255 255
0.0500905 0.0145488 0.143368 255 255 255
0.0538352 0.0127747 0.143933 255 255 255
0.0545802 0.0134282 0.143531 255 255 255
0.0553798 0.0137116 0.143636 255 255 255
0.0576589 0.0139491 0.143574 255 255 255
0.0589391 0.0138561 0.143681 255 255 255
0.062266 0.013864 0.14362 255 255 255
0.0625791 0.0138989 0.143671 255 255 255
-0.0740791 0.0173049 0.139701 255 255 255
-0.072924 0.0178598 0.13988 255 255 255
-0.064409 0.0164049 0.140081 255 255 255
-0.0644071 0.016406 0.140088 255 255 255
-0.0396062 0.0148054 0.128198 255 255 255
-0.0368551 0.0153652 0.128177 255 255 255
-0.0220221 0.0146061 0.128984 255 255 255
-0.0181397 0.0159585 0.126951 255 255 255
-0.00466955 0.0155683 0.127419 255 255 255
-0.00218754 0.0153785 0.129356 255 255 255
-0.000517876 0.0153084 0.129368 255 255 255
0.00139679 0.0145603 0.129524 255 255 255
0.00327429 0.0153123 0.129457 255 255 255
0.00327163 0.0153118 0.129468 255 255 255
0.0033636 0.0158928 0.127523 255 255 255
0.0135847 0.0142655 0.129857 255 255 255
0.0135847 0.0142655 0.129857 255 255 255
0.0228246 0.0154093 0.130003 255 255 255
0.0244126 0.0152869 0.130105 255 255 255
0.0284826 0.0153089 0.130121 255 255 255
0.0316782 0.0153621 0.130234 255 255 255
0.0320341 0.0142754 0.130414 255 255 255
0.0333072 0.0157956 0.128351 255 255 255
0.0370359 0.0175032 0.143008 255 255 255
0.0362811 0.0180037 0.142873 255 255 255
0.0392586 0.0157264 0.143433 255 255 255
0.0419787 0.0160069 0.143153 255 255 255
0.0432011 0.0179923 0.143143 255 255 255
0.0431977 0.0179891 0.143152 255 255 255
0.0442582 0.0159378 0.143395 255 255 255
0.0461183 0.0162529 0.143351 255 255 255
0.0438522 0.0174973 0.143409 255 255 255
0.043856 0.0174956 0.1434 255 255 255
0.0445089 0.0180956 0.143319 255 255 255
0.0472215 0.0166574 0.143366 255 255 255
0.0482843 0.0171553 0.14345 255 255 255
0.0490933 0.0171515 0.143506 255 255 255
0.0486911 0.017522 0.143425 255 255 255
0.0518334 0.0158328 0.14348 255 255 255
0.0519447 0.0171673 0.143495 255 255 255
0.0566037 0.0153971 0.143496 255 255 255
0.0609817 0.0153335 0.143653 255 255 255
0.0601343 0.016332 0.143519 255 255 255
0.0582663 0.0175309 0.143476 255 255 255
0.0591908 0.0171335 0.143511 255 255 255
0.0621989 0.0166169 0.143649 255 255 255
0.061792 0.0167815 0.143493 255 255 255
0.0634581 0.0174954 0.143495 255 255 255
0.0641237 0.0155091 0.143712 255 255 255
-0.0737297 0.0247817 0.13936 255 255 255
0.0136448 0.0161409 0.100497 255 255 255
0.0171131 0.0145786 0.103623 255 255 255
0.0195638 0.0147197 0.106196 255 255 255
0.0241076 0.0180593 0.128625 255 255 255
0.0285471 0.0167484 0.128125 255 255 255
0.0366179 0.0193192 0.142846 255 255 255
0.0399816 0.0210035 0.143264 255 255 255
0.0426442 0.0186225 0.143064 255 255 255
0.0434278 0.018422 0.143253 255 255 255
0.0415798 0.0201718 0.143226 255 255 255
0.0415185 0.0205689 0.143302 255 255 255
0.0456443 0.0193899 0.143122 255 255 255
0.0456443 0.0193899 0.143122 255 255 255
0.0437433 0.0196478 0.143382 255 255 255
0.0443199 0.0206201 0.143486 255 255 255
0.0461347 0.0206772 0.143284 255 255 255
0.0465753 0.0207071 0.143268 255 255 255
0.0478296 0.0198832 0.143139 255 255 255
0.0482584 0.0198807 0.143127 255 255 255
0.0480395 0.0202844 0.143118 255 255 255
0.0493423 0.019579 0.143218 255 255 255
0.0503742 0.0182704 0.143233 255 255 255
0.0510219 0.0208136 0.143149 255 255 255
0.0511797 0.0204121 0.143264 255 255 255
0.0518146 0.0207781 0.143156 255 255 255
0.0541973 0.0179858 0.143348 255 255 255
0.0550523 0.017976 0.143361 255 255 255
0.0547593 0.0183129 0.143402 255 255 255
0.0537203 0.019516 0.143352 255 255 255
0.054955 0.0199781 0.143736 255 255 255
0.0545284 0.0200266 0.143401 255 255 255
0.0544317 0.0204237 0.143417 255 255 255
0.0589329 0.0199683 0.143388 255 255 255
0.0613912 0.0192657 0.143667 255 255 255
0.061746 0.0193156 0.143549 255 255 255
0.0644901 0.0180556 0.143429 255 255 255
0.0644105 0.0184766 0.143525 255 255 255
0.0654472 0.0180429 0.143503 255 255 255
0.0649135 0.018868 0.14341 255 255 255
0.0645839 0.0200101 0.143382 255 255 255
0.0656406 0.0202337 0.143265 255 255 255
0.0662615 0.0193091 0.143384 255 255 255
0.0173093 0.0189698 0.105621 255 255 255
0.0229714 0.0214023 0.12952 255 255 255
0.025274 0.0226136 0.129159 255 255 255
0.0275574 0.0201033 0.129439 255 255 255
0.0287981 0.0201028 0.129663 255 255 255
0.0287981 0.0201028 0.129663 255 255 255
0.027701 0.0221782 0.129449 255 255 255
0.0300093 0.0224309 0.129467 255 255 255
0.0316067 0.0216109 0.129619 255 255 255
0.0305548 0.0224692 0.129536 255 255 255
0.031272 0.0219387 0.129756 255 255 255
0.0386068 0.0234229 0.14275 255 255 255
0.0425435 0.0214071 0.142912 255 255 255
0.0464202 0.0210691 0.143199 255 255 255
0.0466862 0.02191 0.142948 255 255 255
0.0466862 0.02191 0.142948 255 255 255
0.0441268 0.0234566 0.142758 255 255 255
0.0468209 0.0214769 0.14291 255 255 255
0.0480957 0.0211467 0.1431 255 255 255
0.0483834 0.0220414 0.142929 255 255 255
0.0487753 0.0220396 0.142964 255 255 255
0.0470289 0.0234569 0.142862 255 255 255
0.0490746 0.0229273 0.142889 255 255 255
0.049074 0.023646 0.142877 255 255 255
0.0522814 0.0221785 0.14298 255 255 255
0.0522814 0.0221785 0.14298 255 255 255
0.0510428 0.0224637 0.142986 255 255 255
0.0532255 0.021178 0.143037 255 255 255
0.0543979 0.0213934 0.143095 255 255 255
0.0543979 0.0213921 0.143096 255 255 255
0.0549036 0.0218487 0.143176 255 255 255
0.0549036 0.0218466 0.143176 255 255 255
0.052809 0.0233353 0.142974 255 255 255
0.0540495 0.0224338 0.14303 255 255 255
0.054378 0.0228681 0.143076 255 255 255
0.0541906 0.0233649 0.143019 255 255 255
0.0560783 0.0212502 0.143143 255 255 255
0.0574358 0.0211889 0.143125 255 255 255
0.0560636 0.0222128 0.143144 255 255 255
0.0567808 0.0234242 0.143106 255 255 255
0.0587531 0.0208176 0.143282 255 255 255
0.0595521 0.020812 0.143449 255 255 255
0.0585649 0.0224319 0.143149 255 255 255
0.0613351 0.0222937 0.143208 255 255 255
0.0629074 0.0223002 0.143318 255 255 255
0.0645077 0.0215454 0.143322 255 255 255
0.0644894 0.0219134 0.143372 255 255 255
0.0652725 0.0218369 0.143328 255 255 255
-0.0181855 0.0216606 0.0993241 255 255 255
-0.014376 0.0221581 0.099363 255 255 255
-0.0109604 0.0214005 0.0995347 255 255 255
-0.010963 0.0214064 0.0995387 255 255 255
-0.0100818 0.0216116 0.0996758 255 255 255
0.00438815 0.0213417 0.100053 255 255 255
0.0140102 0.020472 0.102266 255 255 255
0.0189256 0.0219582 0.107344 255 255 255
0.0203107 0.0218596 0.108768 255 255 255
0.0251709 0.0238449 0.129284 255 255 255
0.0251107 0.0251724 0.129226 255 255 255
0.0292499 0.0237064 0.129394 255 255 255
0.0292499 0.0237064 0.129394 255 255 255
0.027252 0.0241462 0.12927 255 255 255
0.0310017 0.023877 0.12949 255 255 255
0.0304323 0.0243526 0.129384 255 255 255
0.0350604 0.027136 0.142419 255 255 255
0.0379506 0.0260433 0.142845 255 255 255
0.0387006 0.0258442 0.143028 255 255 255
0.0411678 0.0256191 0.143023 255 255 255
0.0409905 0.0260091 0.142932 255 255 255
0.0409905 0.0260091 0.142932 255 255 255
0.0417037 0.026926 0.143033 255 255 255
0.0450021 0.0250415 0.142766 255 255 255
0.0441942 0.026708 0.142754 255 255 255
0.047934 0.02612 0.143038 255 255 255
0.0488363 0.0261495 0.143015 255 255 255
0.0505586 0.0240498 0.14288 255 255 255
0.0504265 0.024669 0.142868 255 255 255
0.0525114 0.0247284 0.143048 255 255 255
0.0531293 0.0247277 0.143092 255 255 255
0.052547 0.0250923 0.142951 255 255 255
0.0567861 0.0238265 0.143118 255 255 255
0.0604425 0.02428 0.143251 255 255 255
0.0604425 0.02428 0.143251 255 255 255
0.0581272 0.0252259 0.142973 255 255 255
0.058807 0.0258952 0.143108 255 255 255
0.0616536 0.0238119 0.143139 255 255 255
0.0610576 0.0242697 0.143199 255 255 255
0.0607498 0.0246043 0.143169 255 255 255
0.0631556 0.0236045 0.143271 255 255 255
0.0613362 0.0255867 0.143071 255 255 255
0.0633721 0.0250862 0.143188 255 255 255
0.0631211 0.0254578 0.143179 255 255 255
0.0635802 0.025645 0.143136 255 255 255
0.0664871 0.0235991 0.143236 255 255 255
-0.0110807 0.0247351 0.0995012 255 255 255
-0.00402437 0.0226835 0.0996697 255 255 255
0.00326054 0.022478 0.0998194 255 255 255
0.003375 0.0242033 0.099852 255 255 255
0.00832661 0.0224725 0.0999254 255 255 255
0.0111906 0.0214097 0.100076 255 255 255
0.0104377 0.0222699 0.100152 255 255 255
0.0149381 0.0223336 0.102887 255 255 255
0.0154347 0.0231357 0.103253 255 255 255
0.017621 0.0225917 0.105871 255 255 255
0.0176391 0.024112 0.105802 255 255 255
0.0176844 0.0244176 0.105713 255 255 255
0.018542 0.0232415 0.106825 255 255 255
0.0202402 0.0244933 0.108589 255 255 255
0.0220399 0.0278844 0.128795 255 255 255
0.0220199 0.0284674 0.127393 255 255 255
0.0228013 0.0282318 0.128392 255 255 255
0.027519 0.0257966 0.129248 255 255 255
0.027489 0.0262554 0.12917 255 255 255
0.027486 0.0262616 0.129182 255 255 255
0.0287235 0.0262113 0.129279 255 255 255
0.0362536 0.0279322 0.142153 255 255 255
0.0366124 0.0296429 0.140237 255 255 255
0.0376492 0.0275491 0.142499 255 255 255
0.0415967 0.0280702 0.142367 255 255 255
0.0433418 0.0274653 0.142673 255 255 255
0.0448453 0.0271657 0.142667 255 255 255
0.0448412 0.0271558 0.14263 255 255 255
0.0438069 0.0277685 0.142533 255 255 255
0.0503446 0.0268123 0.142881 255 255 255
0.0511959 0.0268171 0.142916 255 255 255
0.0534681 0.0284292 0.14173 255 255 255
0.0546905 0.0281517 0.142293 255 255 255
0.055702 0.0266653 0.142943 255 255 255
0.0564846 0.027296 0.142882 255 255 255
0.0560415 0.0277907 0.142658 255 255 255
0.0590227 0.0283391 0.142018 255 255 255
0.0616022 0.0259682 0.143171 255 255 255
0.0608079 0.0267822 0.143024 255 255 255
0.0614611 0.0271303 0.143111 255 255 255
0.0624112 0.0265733 0.143068 255 255 255
0.0626938 0.0268815 0.142945 255 255 255
0.062687 0.0268768 0.142941 255 255 255
0.0611097 0.0273814 0.142975 255 255 255
0.063349 0.0260631 0.143208 255 255 255
0.063235 0.0263965 0.143126 255 255 255
0.0636166 0.0274807 0.142826 255 255 255
0.0664502 0.0278174 0.142912 255 255 255
0.0698824 0.0278935 0.15145 255 255 255
-0.00595026 0.0268286 0.0988826 255 255 255
-0.00531249 0.0268383 0.0989563 255 255 255
-0.00531003 0.0268377 0.0989531 255 255 255
-0.003453 0.026835 0.09898 255 255 255
-0.00346104 0.0268368 0.0989872 255 255 255
-0.00064586 0.0268529 0.0990819 255 255 255
-0.000646255 0.0268524 0.0990808 255 255 255
0.00273756 0.0248167 0.0997781 255 255 255
0.0137168 0.0253483 0.101437 255 255 255
0.0150581 0.0241662 0.103003 255 255 255
0.0165397 0.0247206 0.104471 255 255 255
0.0163753 0.025599 0.104451 255 255 255
0.0174256 0.0247562 0.105466 255 255 255
0.0384285 0.0301556 0.140274 255 255 255
0.0393918 0.0301115 0.140208 255 255 255
0.0398991 0.0298291 0.140297 255 255 255
0.0400441 0.0301968 0.140181 255 255 255
0.040516 0.029864 0.140205 255 255 255
0.0405183 0.0298694 0.14023 255 255 255
0.0502233 0.0300776 0.14037 255 255 255
0.0503103 0.0306517 0.140277 255 255 255
0.0503103 0.0306517 0.140277 255 255 255
0.0560148 0.0300303 0.140384 255 255 255
0.0574881 0.0299774 0.140431 255 255 255
0.0695248 0.0296972 0.140568 255 255 255
0.00387356 0.0282379 0.0982446 255 255 255
0.0109023 0.0282497 0.0983839 255 255 255
0.0116961 0.0282092 0.0984579 255 255 255
0.0154327 0.027015 0.102366 255 255 255
0.0176297 0.0271277 0.104826 255 255 255
0.0174482 0.0287116 0.103195 255 255 255
0.0179069 0.0286635 0.103596 255 255 255
0.0187733 0.0271832 0.10607 255 255 255
0.0196375 0.0271954 0.106896 255 255 255
0.0193892 0.0285109 0.105248 255 255 255
0.0209522 0.0283092 0.106919 255 255 255
0.0214137 0.0286307 0.107479 255 255 255
0.0283074 0.031888 0.127496 255 255 255
0.0287399 0.0321304 0.127536 255 255 255
0.0306552 0.0317172 0.127603 255 255 255
0.0429634 0.0331542 0.140113 255 255 255
0.0624364 0.0312061 0.140331 255 255 255
0.0624932 0.0326308 0.140264 255 255 255
0.0627251 0.0322785 0.140338 255 255 255
0.0683834 0.0304728 0.140381 255 255 255
0.0691298 0.0309399 0.140367 255 255 255
-0.00678115 0.0310525 0.0977113 255 255 255
0.0123654 0.0284418 0.0984291 255 255 255
0.0134681 0.0287254 0.0988896 255 255 255
0.0209899 0.031041 0.106798 255 255 255
0.0227735 0.0309216 0.108719 255 255 255
0.0622041 0.0337109 0.140304 255 255 255
0.0686909 0.0331962 0.140352 255 255 255
0.00185164 -0.0610118 0.146225 255 255 255
0.01555 -0.0594937 0.146405 255 255 255
0.016145 -0.0578431 0.146674 255 255 255
0.018881 -0.0575317 0.146461 255 255 255
0.0207983 -0.0583221 0.146781 255 255 255
0.0208694 -0.0577546 0.146823 255 255 255
0.0361212 -0.053584 0.146803 255 255 255
0.037124 -0.0542462 0.146862 255 255 255
0.0432247 -0.051967 0.14675 255 255 255
0.0439877 -0.0515764 0.146653 255 255 255
0.0514911 -0.0491618 0.146837 255 255 255
0.0514184 -0.0487058 0.147031 255 255 255
0.0514172 -0.0487044 0.147032 255 255 255
0.0571741 -0.0472215 0.146701 255 255 255
0.0608398 -0.0470378 0.146681 255 255 255
0.0629088 -0.0474666 0.146932 255 255 255
-0.0449873 -0.0688211 0.145418 255 255 255
-0.0449873 -0.0688211 0.145418 255 255 255
-0.028296 -0.0656084 0.145665 255 255 255
-0.0211485 -0.0649404 0.146113 255 255 255
-0.0196374 -0.0627653 0.145803 255 255 255
-0.0106966 -0.0622908 0.145852 255 255 255
0.00438997 -0.0585187 0.146259 255 255 255
0.0243715 -0.053487 0.146522 255 255 255
0.0253138 -0.0517709 0.146257 255 255 255
0.0297973 -0.0535067 0.146575 255 255 255
0.0420735 -0.0492985 0.146746 255 255 255
0.0420746 -0.0492213 0.146719 255 255 255
0.042837 -0.0485076 0.146841 255 255 255
0.0441487 -0.0491165 0.146624 255 255 255
0.0441351 -0.0486638 0.146863 255 255 255
0.0441333 -0.048669 0.146877 255 255 255
0.0448177 -0.0482049 0.146875 255 255 255
0.0449854 -0.0472603 0.146574 255 255 255
0.0465129 -0.0470014 0.146515 255 255 255
0.0480451 -0.0480717 0.146527 255 255 255
0.0471829 -0.0469237 0.146461 255 255 255
0.0519263 -0.0472833 0.146548 255 255 255
0.0521944 -0.0460303 0.146549 255 255 255
-0.0487339 -0.0682011 0.145532 255 255 255
-0.0403244 -0.0661298 0.145321 255 255 255
-0.0403244 -0.0661298 0.145321 255 255 255
-0.0413317 -0.0638366 0.145 255 255 255
-0.0413317 -0.0638366 0.145 255 255 255
-0.039306 -0.0643441 0.145518 255 255 255
-0.0385376 -0.0626213 0.145144 255 255 255
-0.0332177 -0.0648199 0.145406 255 255 255
0.00516665 -0.0527252 0.134913 255 255 255
0.0120022 -0.0521564 0.146064 255 255 255
0.0148181 -0.0537278 0.146417 255 255 255
0.0163296 -0.052982 0.146147 255 255 255
0.0212556 -0.0491341 0.146271 255 255 255
0.0255204 -0.0489495 0.146214 255 255 255
0.0282199 -0.0488634 0.146272 255 255 255
0.0283618 -0.0482464 0.14627 255 255 255
0.0282656 -0.0475484 0.146188 255 255 255
0.028268 -0.0475545 0.146197 255 255 255
0.0364984 -0.0478437 0.146234 255 255 255
0.041712 -0.0476549 0.146538 255 255 255
0.0452396 -0.0437924 0.146575 255 255 255
0.0474331 -0.0445303 0.146446 255 255 255
0.0483873 -0.0431506 0.146511 255 255 255
0.0535401 -0.044191 0.146576 255 255 255
0.0581584 -0.0427566 0.146928 255 255 255
0.0585191 -0.0418005 0.146748 255 255 255
0.0590233 -0.0416136 0.1467 255 255 255
-0.074209 -0.0675605 0.144564 255 255 255
-0.0679704 -0.0658638 0.14446 255 255 255
-0.0429466 -0.0615545 0.145073 255 255 255
-0.0393695 -0.0586392 0.145061 255 255 255
-0.0334968 -0.0591076 0.144813 255 255 255
-0.00370147 -0.0486177 0.132686 255 255 255
0.00308884 -0.0498923 0.136549 255 255 255
0.00887036 -0.0486433 0.136165 255 255 255
0.0103634 -0.0476262 0.13683 255 255 255
0.0234242 -0.0457709 0.145874 255 255 255
0.0273369 -0.0465436 0.14609 255 255 255
0.0282087 -0.0468695 0.146068 255 255 255
0.0282087 -0.0468695 0.146068 255 255 255
0.0346088 -0.0437847 0.14623 255 255 255
0.0349185 -0.0432361 0.146268 255 255 255
0.0349148 -0.0432403 0.146292 255 255 255
0.0385614 -0.0434623 0.146458 255 255 255
0.0411973 -0.0432529 0.146392 255 255 255
0.0456502 -0.0432933 0.146415 255 255 255
0.0467861 -0.0408814 0.146312 255 255 255
0.0482517 -0.0408601 0.146454 255 255 255
0.0482517 -0.0408601 0.146454 255 255 255
0.0545486 -0.0393195 0.146388 255 255 255
0.0598828 -0.0376906 0.146384 255 255 255
0.0608456 -0.0375709 0.146322 255 255 255
-0.0684548 -0.0626799 0.144751 255 255 255
-0.0643072 -0.0622321 0.144111 255 255 255
-0.0620604 -0.0621318 0.144425 255 255 255
-0.0491349 -0.0592286 0.144608 255 255 255
-0.0482513 -0.058456 0.144634 255 255 255
-0.0502363 -0.0569869 0.144669 255 255 255
-0.0409697 -0.0544378 0.144628 255 255 255
-0.0374143 -0.0535494 0.144918 255 255 255
-0.0131975 -0.0458645 0.130765 255 255 255
-0.0077948 -0.0463791 0.133517 255 255 255
-0.0026331 -0.0460185 0.133451 255 255 255
-0.00166595 -0.044899 0.133419 255 255 255
0.00335082 -0.0421241 0.131337 255 255 255
0.0143847 -0.0426349 0.13382 255 255 255
0.0143847 -0.0426349 0.13382 255 255 255
0.0207577 -0.0420711 0.145853 255 255 255
0.0229256 -0.0438267 0.145967 255 255 255
0.0255988 -0.0438302 0.145943 255 255 255
0.0255889 -0.0438656 0.145969 255 255 255
0.025062 -0.0433141 0.145924 255 255 255
0.0270595 -0.0426729 0.145813 255 255 255
0.0280714 -0.0433641 0.146038 255 255 255
0.0278229 -0.0410878 0.145831 255 255 255
0.0295409 -0.0432187 0.146291 255 255 255
0.0327705 -0.0425479 0.145943 255 255 255
0.0353844 -0.0420965 0.14637 255 255 255
0.0381484 -0.0413617 0.146014 255 255 255
0.0374488 -0.0407337 0.146035 255 255 255
0.0374451 -0.040741 0.146039 255 255 255
0.0372588 -0.0401493 0.146012 255 255 255
0.0444234 -0.0405474 0.146642 255 255 255
0.0431116 -0.0379232 0.146163 255 255 255
0.0450602 -0.0387226 0.146055 255 255 255
0.0485589 -0.0384395 0.146098 255 255 255
0.0485588 -0.0384391 0.1461 255 255 255
0.047543 -0.0375804 0.14625 255 255 255
0.0483643 -0.037926 0.146204 255 255 255
0.0496482 -0.0386054 0.146137 255 255 255
0.0515907 -0.0375044 0.146564 255 255 255
0.052238 -0.0380042 0.146334 255 255 255
0.0546348 -0.0367645 0.146086 255 255 255
0.0652481 -0.033504 0.146218 255 255 255
-0.0806197 -0.0572255 0.143677 255 255 255
-0.0709076 -0.0579953 0.143803 255 255 255
-0.0691819 -0.056643 0.143788 255 255 255
-0.00982428 -0.0449478 0.133365 255 255 255
-0.00982428 -0.0449478 0.133365 255 255 255
0.0156474 -0.0417008 0.144723 255 255 255
0.0148409 -0.0401856 0.145375 255 255 255
0.0210212 -0.0407469 0.145475 255 255 255
0.0221697 -0.0399739 0.145842 255 255 255
0.0250649 -0.0407317 0.145902 255 255 255
0.0246636 -0.040001 0.145768 255 255 255
0.0304457 -0.0381097 0.146087 255 255 255
0.030951 -0.0370749 0.145729 255 255 255
0.0337206 -0.0368374 0.145661 255 255 255
0.0441816 -0.035556 0.146259 255 255 255
0.0474758 -0.0360844 0.146196 255 255 255
0.047213 -0.033934 0.14589 255 255 255
0.0482478 -0.0341652 0.145931 255 255 255
0.0517988 -0.0330549 0.145815 255 255 255
0.0568031 -0.0318909 0.145925 255 255 255
0.0633958 -0.0335107 0.146208 255 255 255
0.0649354 -0.0326788 0.146155 255 255 255
-0.0609569 -0.0530298 0.144182 255 255 255
-0.0505582 -0.0481924 0.144198 255 255 255
-0.0428668 -0.0498572 0.144463 255 255 255
-0.0214346 -0.0417844 0.133245 255 255 255
0.00305296 -0.0372479 0.134249 255 255 255
0.00895339 -0.0371448 0.136925 255 255 255
0.0161572 -0.0392495 0.145355 255 255 255
0.0191461 -0.0384122 0.145407 255 255 255
0.025377 -0.0368881 0.145697 255 255 255
0.0252941 -0.0351606 0.145423 255 255 255
0.0274295 -0.0347864 0.145645 255 255 255
0.0285364 -0.0347801 0.145754 255 255 255
0.0312502 -0.0361032 0.145487 255 255 255
0.0293603 -0.034664 0.145849 255 255 255
0.0315941 -0.0336654 0.145553 255 255 255
0.0332486 -0.0351922 0.145579 255 255 255
0.0400869 -0.0323461 0.145803 255 255 255
0.0489085 -0.0329855 0.145755 255 255 255
0.0476846 -0.0325671 0.146207 255 255 255
0.0476861 -0.0325672 0.146211 255 255 255
0.0534298 -0.031847 0.145959 255 255 255
0.0534298 -0.031847 0.145959 255 255 255
0.054885 -0.0314428 0.14607 255 255 255
0.0544737 -0.0299695 0.146018 255 255 255
0.0544777 -0.0299786 0.146032 255 255 255
0.0570757 -0.0313478 0.145961 255 255 255
0.0611744 -0.0291269 0.145848 255 255 255
-0.0646426 -0.0481797 0.143811 255 255 255
-0.0485725 -0.0451971 0.14381 255 255 255
-0.0435794 -0.0427162 0.144018 255 255 255
-0.0371295 -0.0429526 0.144487 255 255 255
0.00754759 -0.0346537 0.133654 255 255 255
0.0063221 -0.0336056 0.133298 255 255 255
0.0249516 -0.0332368 0.145214 255 255 255
0.0250481 -0.032626 0.145323 255 255 255
0.023007 -0.0319137 0.145523 255 255 255
0.0247032 -0.0321202 0.145349 255 255 255
0.0261737 -0.0321329 0.14552 255 255 255
0.0274433 -0.0308389 0.145237 255 255 255
0.0284481 -0.0319405 0.145576 255 255 255
0.0303657 -0.0332202 0.145561 255 255 255
0.0317853 -0.0322614 0.145623 255 255 255
0.0353949 -0.0313414 0.145549 255 255 255
0.0376174 -0.0318384 0.146281 255 255 255
0.0418049 -0.0304458 0.145692 255 255 255
0.0418039 -0.0304518 0.145693 255 255 255
0.0439078 -0.0303883 0.145643 255 255 255
0.05143 -0.0289778 0.14583 255 255 255
0.0491536 -0.0283045 0.145723 255 255 255
0.0491536 -0.0283045 0.145723 255 255 255
0.0620943 -0.0274226 0.145762 255 255 255
0.0620923 -0.0274266 0.145779 255 255 255
0.0643392 -0.0247871 0.145812 255 255 255
-0.0134078 -0.0335094 0.132558 255 255 255
-0.0112907 -0.0334878 0.132535 255 255 255
-0.0143764 -0.0316544 0.132419 255 255 255
0.0262987 -0.0273728 0.145285 255 255 255
0.0285012 -0.0277291 0.145168 255 255 255
0.0283435 -0.027155 0.145279 255 255 255
0.0283359 -0.0271552 0.14528 255 255 255
0.0327467 -0.0276846 0.145388 255 255 255
0.0451687 -0.0271829 0.145657 255 255 255
0.047172 -0.0258999 0.14594 255 255 255
0.0497348 -0.0268875 0.145821 255 255 255
0.0546134 -0.0257163 0.145703 255 255 255
0.0544979 -0.0244738 0.145602 255 255 255
0.0596221 -0.0235014 0.145624 255 255 255
-0.0745994 -0.0375905 0.14265 255 255 255
-0.0656134 -0.0372928 0.142922 255 255 255
-0.0614529 -0.0380261 0.14317 255 255 255
-0.0465617 -0.0348215 0.143503 255 255 255
-0.0465617 -0.0348215 0.143503 255 255 255
-0.0443184 -0.0348133 0.143668 255 255 255
-0.0397431 -0.0360946 0.143917 255 255 255
-0.012577 -0.0309244 0.133603 255 255 255
-0.0125188 -0.0284948 0.13551 255 255 255
0.0275856 -0.0259238 0.145325 255 255 255
0.0274569 -0.0253946 0.1452 255 255 255
0.0410117 -0.0248646 0.145356 255 255 255
0.0396618 -0.0227127 0.145311 255 255 255
0.04548 -0.022815 0.145336 255 255 255
0.04548 -0.022815 0.145336 255 255 255
0.0496586 -0.0226506 0.14525 255 255 255
0.0583154 -0.020988 0.145628 255 255 255
-0.0751509 -0.036818 0.14279 255 255 255
-0.0634165 -0.0342515 0.142623 255 255 255
-0.0634843 -0.0324102 0.142644 255 255 255
-0.00303763 -0.0255248 0.136404 255 255 255
0.0213887 -0.0228549 0.144738 255 255 255
0.0218711 -0.0222514 0.144816 255 255 255
0.0370932 -0.0212588 0.145179 255 255 255
0.0375804 -0.0206973 0.144947 255 255 255
0.0439322 -0.0215156 0.145354 255 255 255
0.045868 -0.018242 0.145151 255 255 255
0.0458621 -0.0182347 0.145117 255 255 255
0.0512931 -0.0177071 0.145178 255 255 255
0.0522196 -0.0182136 0.145146 255 255 255
0.0572739 -0.0169861 0.14533 255 255 255
0.0612077 -0.0175608 0.145366 255 255 255
0.0649151 -0.0180166 0.145424 255 255 255
-0.0587703 -0.030354 0.142763 255 255 255
-0.0467501 -0.0288511 0.142826 255 255 255
-0.0436134 -0.0276611 0.143214 255 255 255
-0.040998 -0.0287588 0.143319 255 255 255
-0.0394306 -0.0251471 0.143306 255 255 255
-0.0250625 -0.0228439 0.136945 255 255 255
-0.0242563 -0.0258527 0.137774 255 255 255
-0.0107113 -0.0231954 0.135689 255 255 255
-0.00552767 -0.0232467 0.135946 255 255 255
-0.00733019 -0.0226691 0.135909 255 255 255
-0.00879221 -0.0214712 0.135893 255 255 255
0.0114112 -0.0212363 0.138734 255 255 255
0.0279949 -0.0178638 0.144573 255 255 255
0.0335275 -0.0192494 0.144822 255 255 255
0.0325445 -0.0171576 0.14461 255 255 255
0.0378091 -0.0163748 0.145103 255 255 255
0.0441582 -0.0164298 0.14507 255 255 255
0.0511381 -0.0171987 0.145346 255 255 255
0.0498251 -0.0164522 0.145399 255 255 255
0.0505587 -0.0166193 0.145306 255 255 255
0.0655569 -0.0141328 0.145216 255 255 255
0.0655985 -0.0131576 0.145231 255 255 255
-0.0571389 -0.0260405 0.142701 255 255 255
-0.0097784 -0.0199957 0.135907 255 255 255
0.0101902 -0.0173539 0.13415 255 255 255
0.01005 -0.0171387 0.13945 255 255 255
0.0378782 -0.0135752 0.144709 255 255 255
0.0378275 -0.0135959 0.144811 255 255 255
0.0395838 -0.0129654 0.144603 255 255 255
0.0424514 -0.013985 0.144821 255 255 255
0.0455565 -0.0143783 0.144857 255 255 255
0.0480704 -0.0137661 0.145055 255 255 255
0.050234 -0.0144919 0.145092 255 255 255
0.0522773 -0.0134853 0.144902 255 255 255
0.051386 -0.0118992 0.145102 255 255 255
0.0547288 -0.0131645 0.145072 255 255 255
0.0569032 -0.0130602 0.145054 255 255 255
0.05426 -0.0116346 0.145027 255 255 255
0.0562317 -0.0114615 0.145154 255 255 255
0.0565334 -0.011014 0.145167 255 255 255
0.0593136 -0.0109192 0.145073 255 255 255
0.0649954 -0.0125662 0.145182 255 255 255
-0.0731733 -0.0227526 0.14184 255 255 255
-0.068203 -0.0187916 0.141839 255 255 255
-0.0626406 -0.0217933 0.142239 255 255 255
-0.0608992 -0.0197219 0.142158 255 255 255
-0.0585327 -0.0196172 0.142412 255 255 255
-0.0455435 -0.0175018 0.142524 255 255 255
0.00718526 -0.0146418 0.135412 255 255 255
0.0402951 -0.0115783 0.144818 255 255 255
0.0430811 -0.0112211 0.144559 255 255 255
0.0439713 -0.0111458 0.144564 255 255 255
0.0490509 -0.0109004 0.144874 255 255 255
0.0485454 -0.0100892 0.144854 255 255 255
0.0494431 -0.0100143 0.144766 255 255 255
0.0585274 -0.00977769 0.144998 255 255 255
0.0602805 -0.00887201 0.144903 255 255 255
0.0607005 -0.00773475 0.144868 255 255 255
-0.0511689 -0.0164398 0.142461 255 255 255
-0.0511689 -0.0164398 0.142461 255 255 255
-0.0244259 -0.0129154 0.137295 255 255 255
-0.0131404 -0.0128874 0.134912 255 255 255
0.0109857 -0.010854 0.138959 255 255 255
0.015386 -0.0094029 0.139103 255 255 255
0.0367442 -0.0081753 0.144289 255 255 255
0.0390221 -0.00756681 0.144206 255 255 255
0.0430869 -0.00829514 0.144552 255 255 255
0.0506263 -0.00637654 0.144851 255 255 255
0.050514 -0.0058151 0.144773 255 255 255
0.050514 -0.0058151 0.144773 255 255 255
0.0509042 -0.00750153 0.144767 255 255 255
0.0552306 -0.00628062 0.144662 255 255 255
0.0570902 -0.0072816 0.144752 255 255 255
0.0585905 -0.00667065 0.144841 255 255 255
0.0603698 -0.00624254 0.144793 255 255 255
0.0602562 -0.00571708 0.144923 255 255 255
-0.0033707 -0.00746269 0.133619 255 255 255
0.0149462 -0.00542187 0.1385 255 255 255
0.0162094 -0.00536946 0.138611 255 255 255
0.0171281 -0.00474961 0.138687 255 255 255
0.0382678 -0.00569713 0.144183 255 255 255
