ply
format ascii 1.0
element vertex 1071
property float x
property float y
property float z
property uchar red
property uchar green
property uchar blue
end_header
0.0146697 0.00389283 0.0628452 255 255 255
0.0242247 -0.0019491 0.0688088 255 255 255
-0.00953298 0.00133039 0.0478689 255 255 255
-0.00493791 0.00192901 0.0497897 255 255 255
0.0108721 0.00173057 0.0586817 255 255 255
0.0207874 -0.00265534 0.0704209 255 255 255
-0.00279798 -0.00199632 0.0500802 255 255 255
-0.0048246 -0.00494599 0.0494217 255 255 255
-0.017798 -0.00535929 0.0550854 255 255 255
-0.00889633 -0.0049209 0.0590712 255 255 255
-0.0170442 -0.00461075 0.0536907 255 255 255
0.00175242 -0.00535464 0.0619817 255 255 255
0.00745851 -0.00463354 0.0637819 255 255 255
0.00758355 -0.00442944 0.063736 255 255 255
0.000839595 -0.0034723 0.0605954 255 255 255
0.0116268 -0.00412933 0.0655911 255 255 255
0.00684967 -0.00299306 0.0639359 255 255 255
0.0214727 -0.00334048 0.0709217 255 255 255
0.0242115 -0.00421176 0.0700339 255 255 255
-0.0145915 -0.00606416 0.044119 255 255 255
-0.0135638 -0.00598651 0.0450953 255 255 255
-0.0136107 -0.0059512 0.0449589 255 255 255
-0.0136382 -0.00590204 0.0448632 255 255 255
-0.0129843 -0.00568302 0.0455264 255 255 255
-0.0130552 -0.00565035 0.0453691 255 255 255
-0.0126028 -0.00537361 0.0456122 255 255 255
-0.0118259 -0.00523854 0.0465075 255 255 255
-0.0104169 -0.00530987 0.0470635 255 255 255
-0.0104169 -0.00531083 0.0470613 255 255 255
-0.00916261 -0.0053405 0.0475756 255 255 255
0.0216827 -0.0026949 0.0694054 255 255 255
-0.0115014 -0.00486246 0.0463518 255 255 255
-0.00953683 -0.00512908 0.047234 255 255 255
-0.0066921 -0.00457911 0.0489872 255 255 255
0.00593843 -0.00176088 0.0607861 255 255 255
0.00599094 -0.00124876 0.0603446 255 255 255
0.0105963 -0.00207297 0.0606653 255 255 255
0.0158321 -0.00218991 0.0634679 255 255 255
0.0158321 -0.00218991 0.0634679 255 255 255
0.0231356 -0.00129135 0.0680604 255 255 255
-0.003233 -0.00397834 0.0496647 255 255 255
0.00291954 -7.23019e-05 0.0592959 255 255 255
0.0130112 -0.00111367 0.0602526 255 255 255
-0.00577192 -0.00178421 0.049777 255 255 255
0.0139619 -0.000123427 0.0602003 255 255 255
0.0187136 0.000286291 0.0638389 255 255 255
0.00811096 0.00129805 0.0591024 255 255 255
0.0133163 0.000498069 0.0597596 255 255 255
0.00767489 0.00187631 0.0592188 255 255 255
0.0077491 0.00186781 0.0589545 255 255 255
0.00704603 0.00270292 0.0578749 255 255 255
0.0144067 0.00377753 0.0625795 255 255 255
0.016084 0.00361641 0.0630915 255 255 255
-0.0125838 0.00141672 0.0464217 255 255 255
-0.0107574 0.00147689 0.0472812 255 255 255
-0.00625929 0.0022016 0.0493888 255 255 255
-0.00566112 0.00188078 0.049683 255 255 255
-0.00213638 0.00160764 0.0498564 255 255 255
0.00853071 0.0036036 0.0570108 255 255 255
-0.0145342 0.00174966 0.0454763 255 255 255
-0.0145342 0.00174956 0.0454762 255 255 255
-0.0115092 0.00196562 0.0468922 255 255 255
-0.0100218 0.00219315 0.0475891 255 255 255
-0.00927235 0.00228798 0.0479503 255 255 255
-0.010727 0.003206 0.0472176 255 255 255
-0.00435411 0.00382186 0.0497852 255 255 255
-0.00565796 0.00447416 0.0491536 255 255 255
-0.0045146 0.00474469 0.0496054 255 255 255
-0.0138431 0.00545984 0.0440973 255 255 255
0.000843958 -0.00575233 0.0623498 255 255 255
-0.01473 -0.00463846 0.0549344 255 255 255
-0.000158549 -0.00440206 0.06073 255 255 255
0.000455272 -0.00416389 0.0605296 255 255 255
0.0083117 -0.0045967 0.0641073 255 255 255
0.00051773 -0.00395677 0.0605198 255 255 255
0.00109797 -0.00371469 0.060522 255 255 255
0.00122921 -0.00350109 0.060563 255 255 255
0.00259417 -0.00396369 0.061524 255 255 255
-0.000853121 -0.00682006 0.0499859 255 255 255
0.0065913 -0.00301824 0.0638907 255 255 255
0.0103248 -0.00380982 0.0632404 255 255 255
0.0146525 -0.00488468 0.0637403 255 255 255
-0.014305 -0.00593191 0.0441264 255 255 255
-0.0117797 -0.00530635 0.0466554 255 255 255
-0.00878239 -0.00538986 0.0480184 255 255 255
0.00575997 -0.00158002 0.0641274 255 255 255
-0.00874308 -0.00460008 0.0479632 255 255 255
-0.00627689 -0.00489738 0.0492763 255 255 255
0.000723781 -0.00459132 0.0534114 255 255 255
0.00797424 -0.00223194 0.0609219 255 255 255
0.00991383 -0.00297435 0.0611529 255 255 255
0.00991116 -0.00297723 0.0611467 255 255 255
0.0128441 -0.00300985 0.0612357 255 255 255
0.0128441 -0.00300985 0.0612357 255 255 255
0.0158084 -0.00268405 0.0651887 255 255 255
-0.00673615 -0.00426798 0.0486433 255 255 255
0.00758655 -0.00183024 0.0607438 255 255 255
0.00391268 -0.000647382 0.059472 255 255 255
0.0136478 -0.00168933 0.0610434 255 255 255
0.0194496 -0.00130899 0.0653361 255 255 255
0.0194496 -0.00130899 0.0653361 255 255 255
-0.00988618 -0.0022757 0.0478274 255 255 255
-0.00605965 -0.00287353 0.049402 255 255 255
-0.00267233 -0.00241461 0.0500695 255 255 255
0.0137505 -0.000704595 0.060381 255 255 255
0.00830381 0.00162408 0.0586697 255 255 255
-0.00343621 6.55334e-05 0.049797 255 255 255
-0.00528833 0.00108618 0.0497735 255 255 255
-0.00529108 0.0011095 0.0498062 255 255 255
0.00849608 0.0027191 0.0574284 255 255 255
0.00849608 0.0027191 0.0574284 255 255 255
-0.0104597 0.00133541 0.04742 255 255 255
0.00184296 0.00434687 0.0553401 255 255 255
-0.00271189 0.00322523 0.0498225 255 255 255
-0.00255918 0.00350296 0.0498636 255 255 255
-0.00370768 0.00473443 0.0495341 255 255 255
-0.00508622 0.00540376 0.0490147 255 255 255
-0.0129862 0.00492734 0.0452249 255 255 255
-0.00640027 -0.00625309 0.0611559 255 255 255
-0.0178466 -0.00515307 0.054803 255 255 255
0.000182224 -0.00539917 0.0615537 255 255 255
0.0127913 -0.00392694 0.0660609 255 255 255
0.00691805 -0.00277228 0.0639518 255 255 255
-0.00645257 -0.00515861 0.0499116 255 255 255
0.0243409 -0.00155628 0.0683853 255 255 255
0.0233182 -0.000592742 0.0679338 255 255 255
0.0197797 -0.000301311 0.0652611 255 255 255
0.00423623 0.00331591 0.0567915 255 255 255
-0.0096961 0.00185447 0.0477748 255 255 255
-0.00509222 0.00333177 0.049643 255 255 255
-0.0146817 0.00579973 0.0432661 255 255 255
-0.0146739 0.00579398 0.0432491 255 255 255
0.00137173 -0.00546634 0.0619276 255 255 255
-0.00671018 -0.00487204 0.0552485 255 255 255
0.00173902 -0.00484313 0.0615524 255 255 255
-0.0152224 -0.00660492 0.0446065 255 255 255
0.00121199 -0.00403842 0.0606864 255 255 255
0.00976154 -0.00328818 0.0623592 255 255 255
0.00215245 -0.000952773 0.0592275 255 255 255
-0.0105686 -0.0019663 0.0474199 255 255 255
-0.0105763 -0.0019469 0.0474819 255 255 255
-0.00923366 0.000201466 0.0480442 255 255 255
0.00344895 0.00355616 0.056516 255 255 255
0.00345886 0.00417164 0.0559409 255 255 255
0.00558967 0.00379653 0.0564953 255 255 255
0.0169289 0.00660747 0.0656145 255 255 255
0.00448208 0.00464027 0.0562495 255 255 255
0.00724202 0.00424261 0.0571981 255 255 255
-0.00904038 0.00317406 0.0480403 255 255 255
0.00190594 0.00483483 0.0542659 255 255 255
-0.00850819 -0.00456938 0.058478 255 255 255
0.00555623 -0.00386313 0.0654248 255 255 255
-0.0044301 -0.00565572 0.0495786 255 255 255
-0.0121824 -0.004943 0.0456309 255 255 255
-0.0123681 -0.00069738 0.0466023 255 255 255
0.00990999 0.00137434 0.0588724 255 255 255
0.0119655 0.00100768 0.0591492 255 255 255
0.00398305 0.00348787 0.0565894 255 255 255
0.00513741 0.00322648 0.0567637 255 255 255
-0.0146168 0.00540659 0.0436776 255 255 255
-0.00832213 -0.00458807 0.0571198 255 255 255
-0.00694504 -0.00468734 0.0543107 255 255 255
0.0032481 -0.00392557 0.0621384 255 255 255
0.0160197 -0.00459636 0.0640301 255 255 255
-0.0116737 -0.00497358 0.0463448 255 255 255
0.012556 -0.00273604 0.0607784 255 255 255
-0.00365163 -0.00193501 0.0498826 255 255 255
0.0160802 4.12249e-05 0.0617561 255 255 255
0.00992436 0.00194374 0.0579533 255 255 255
-0.00132525 0.000297216 0.0497797 255 255 255
-0.0055747 0.00380684 0.049357 255 255 255
-0.0148288 0.00386805 0.0450087 255 255 255
-0.0153372 -0.0063033 0.0442893 255 255 255
-0.0153372 -0.0063033 0.0442893 255 255 255
0.00684709 0.0031582 0.0571744 255 255 255
0.0167806 -0.00216313 0.0647505 255 255 255
-0.00966472 -0.00201296 0.0479464 255 255 255
-0.00797287 -0.00491492 0.0485607 255 255 255
-0.0186712 -0.00577334 0.0550939 255 255 255
-0.00966505 -0.00507616 0.0592775 255 255 255
0.000651888 -0.00566456 0.0618871 255 255 255
-0.0161746 -0.00453113 0.0539668 255 255 255
0.00108674 -0.00536153 0.0615062 255 255 255
0.00960947 -0.00492304 0.0646411 255 255 255
-0.00452941 -0.00576624 0.0549854 255 255 255
-0.00122764 -0.00462138 0.0587968 255 255 255
0.0216639 -0.00398566 0.0710358 255 255 255
-0.00629314 -0.00482965 0.0539706 255 255 255
-0.00342549 -0.00593447 0.0528198 255 255 255
-0.0135958 -0.00618397 0.0454928 255 255 255
0.00661205 -0.00189305 0.0614465 255 255 255
0.00782472 -0.00246692 0.0616338 255 255 255
0.00608547 -0.00176461 0.0608626 255 255 255
0.00822355 -0.00222841 0.0608296 255 255 255
0.0153806 -0.00236511 0.0639359 255 255 255
0.023702 -0.00142735 0.0680232 255 255 255
-0.0111872 -0.00488099 0.0466272 255 255 255
-0.0101282 -0.00504109 0.0469341 255 255 255
0.00338133 -0.00100473 0.0594735 255 255 255
0.00858961 -0.00119402 0.0603715 255 255 255
0.0172206 -0.00136413 0.0634198 255 255 255
0.019084 -0.000819428 0.0647708 255 255 255
-0.00215096 -0.00370704 0.050062 255 255 255
0.0133081 -0.000986348 0.060273 255 255 255
0.0249275 0.000999909 0.0675764 255 255 255
-0.00214523 -0.00243108 0.0500069 255 255 255
-0.00214621 -0.00296389 0.05006 255 255 255
0.0168484 0.000225561 0.0620494 255 255 255
-0.00225149 -0.00137856 0.0500349 255 255 255
0.00108586 -0.000529699 0.05262 255 255 255
-0.00386685 8.01282e-06 0.0498311 255 255 255
0.000551671 0.000511254 0.0521139 255 255 255
-0.00870001 0.000977541 0.0482879 255 255 255
-0.00870115 0.000977097 0.0482871 255 255 255
0.0137865 0.0055431 0.0609574 255 255 255
0.0137865 0.0055431 0.0609574 255 255 255
-0.00870569 0.00238671 0.0482222 255 255 255
-0.00870407 0.00238648 0.0482222 255 255 255
-0.00708481 0.00310615 0.0489609 255 255 255
-0.00471887 0.00349324 0.0497708 255 255 255
-0.00864271 0.00368308 0.0479627 255 255 255
-0.00726732 0.00431162 0.0485108 255 255 255
-0.00591006 0.00473734 0.0489242 255 255 255
-0.005906 0.00473869 0.0489268 255 255 255
-0.00214922 0.00440311 0.049755 255 255 255
-0.00322555 0.00557443 0.0491549 255 255 255
-0.0103096 0.00557824 0.0464769 255 255 255
-0.00902767 -0.00543117 0.0599209 255 255 255
-0.00993155 -0.00510002 0.0600508 255 255 255
-0.0170461 -0.00460754 0.0536881 255 255 255
-0.0168267 -0.00454384 0.0536364 255 255 255
-0.0150594 -0.00463772 0.054758 255 255 255
-0.0117069 -0.00452639 0.05621 255 255 255
0.00188822 -0.00465362 0.0614653 255 255 255
0.00850291 -0.0046316 0.0641851 255 255 255
0.0114301 -0.00397833 0.0654208 255 255 255
0.0160624 -0.00556053 0.0642256 255 255 255
0.0177416 -0.00417795 0.0662031 255 255 255
0.00202215 -0.0013521 0.0617836 255 255 255
-0.0140994 -0.00637103 0.0450468 255 255 255
-0.00481976 -0.00561988 0.0499264 255 255 255
0.00972951 -0.00317078 0.0619525 255 255 255
0.0134681 -0.00319633 0.0630705 255 255 255
0.0167235 -0.00240256 0.0651883 255 255 255
-0.00359985 -0.00525489 0.0496816 255 255 255
0.00758715 -0.00183172 0.0607427 255 255 255
0.0168334 -0.00210455 0.0641892 255 255 255
-0.0150892 -0.00563033 0.0435973 255 255 255
-0.000110859 -0.00248364 0.0518268 255 255 255
0.0196795 0.00062816 0.064888 255 255 255
0.0244791 0.00165686 0.0680719 255 255 255
0.0168132 -9.45567e-05 0.0619992 255 255 255
0.0191732 0.000981648 0.0636683 255 255 255
-0.0106558 -0.00158033 0.0474207 255 255 255
-0.00256762 -0.00212549 0.0500904 255 255 255
0.00863687 0.00116999 0.0588815 255 255 255
-0.010321 -0.000983117 0.0475798 255 255 255
0.0108014 0.00172327 0.0586299 255 255 255
0.0110184 0.00195231 0.058753 255 255 255
0.00465177 0.00310281 0.0570269 255 255 255
0.00736692 0.00257975 0.0581447 255 255 255
-0.00969005 0.00163657 0.0477815 255 255 255
-0.00395048 0.00213355 0.0498418 255 255 255
0.00266484 0.00451203 0.0554357 255 255 255
0.0140064 0.00561849 0.0609382 255 255 255
0.0140064 0.00561849 0.0609382 255 255 255
0.0154285 0.00570434 0.0614685 255 255 255
-0.0105367 0.00252025 0.0473497 255 255 255
-0.0128603 0.00261088 0.0462375 255 255 255
-0.00637156 0.00350767 0.0492084 255 255 255
-0.00521794 0.0047381 0.0492405 255 255 255
-0.00322008 0.0067669 0.0491584 255 255 255
-0.0147872 0.00551072 0.0434606 255 255 255
-0.0147872 0.00551072 0.0434606 255 255 255
0.000179872 -0.00538684 0.0615683 255 255 255
0.00707088 -0.00469653 0.063625 255 255 255
0.0107962 -0.00482499 0.0654256 255 255 255
0.00285973 -0.00347234 0.0615123 255 255 255
0.0114055 -0.00360983 0.0617848 255 255 255
0.0177457 -0.00255799 0.0654639 255 255 255
-0.0124693 -0.00554825 0.0461412 255 255 255
-0.0113853 -0.00500565 0.0465659 255 255 255
0.000549577 -0.00421825 0.0525872 255 255 255
-0.00685119 -0.00372444 0.0488719 255 255 255
-0.00332132 -0.00454541 0.0495847 255 255 255
-0.00258496 0.000491777 0.0499653 255 255 255
-0.0112635 0.00138875 0.0470634 255 255 255
0.00450961 0.0041333 0.0562478 255 255 255
0.00450574 0.0041224 0.0562278 255 255 255
0.00761654 0.00404848 0.0571185 255 255 255
-0.0141553 0.00203785 0.0456486 255 255 255
-0.000867422 0.00201114 0.0496002 255 255 255
-0.0153407 0.00431145 0.0445422 255 255 255
-0.00858994 -0.0053282 0.0597442 255 255 255
0.0156842 -0.00297283 0.0651758 255 255 255
-0.0143833 -0.00604976 0.044229 255 255 255
-0.00578539 -0.00372491 0.0493664 255 255 255
0.01742 -0.000790217 0.0631145 255 255 255
0.00748625 0.00196116 0.0600647 255 255 255
-0.00957919 -0.000285026 0.0479004 255 255 255
-0.000161119 -0.000201422 0.0517534 255 255 255
-0.000161119 -0.000201422 0.0517534 255 255 255
0.00804915 0.00222501 0.058287 255 255 255
-0.00107984 0.000641946 0.0497007 255 255 255
-0.0129459 0.00338813 0.0461279 255 255 255
-0.0102016 0.00531789 0.0464801 255 255 255
-0.00541795 -0.00612008 0.0577956 255 255 255
-0.0140242 -0.00455305 0.0540387 255 255 255
0.00113664 -0.00319155 0.060548 255 255 255
-0.0141614 -0.00602005 0.0443742 255 255 255
-0.0105809 -0.00530223 0.0470061 255 255 255
-0.0058949 -0.00525459 0.0493326 255 255 255
-0.00319255 -0.00593493 0.0498195 255 255 255
0.0227805 -0.0017981 0.0682586 255 255 255
0.0162934 -0.00151212 0.0629957 255 255 255
0.0214475 0.00114124 0.0668588 255 255 255
0.00941058 0.000882343 0.05978 255 255 255
-0.0100051 -0.00107363 0.0476964 255 255 255
-0.000194081 -0.00114512 0.051826 255 255 255
0.00468299 -0.00295901 0.0619287 255 255 255
-0.0064003 -0.00476937 0.052926 255 255 255
0.0213372 -0.00218366 0.0691928 255 255 255
0.00930487 -0.00175958 0.0604843 255 255 255
0.0135504 -0.00249371 0.0615898 255 255 255
-0.00365074 -0.00194382 0.0498675 255 255 255
0.00477461 0.00319484 0.0567845 255 255 255
-0.0033338 0.000631677 0.0497158 255 255 255
-0.0120781 0.00299729 0.0466045 255 255 255
-0.0120705 0.00299796 0.0466095 255 255 255
-0.0023609 -0.00441849 0.0612423 255 255 255
-0.0120306 -0.00547863 0.0467186 255 255 255
-0.00283839 -0.00283121 0.0499126 255 255 255
-0.00714464 0.00361265 0.0486737 255 255 255
0.0113446 -0.00292305 0.0607165 255 255 255
-0.00471144 -4.88546e-05 0.0499764 255 255 255
0.00540497 0.00412753 0.0566233 255 255 255
-0.00976419 -0.00493799 0.059068 255 255 255
-0.0095114 -0.00503314 0.0590625 255 255 255
0.0020506 -0.00575844 0.0630163 255 255 255
-0.0106534 -0.00472496 0.057738 255 255 255
-0.00861947 -0.00469273 0.0586897 255 255 255
0.000503398 -0.0054736 0.0616737 255 255 255
0.000675536 -0.00538817 0.0617796 255 255 255
0.000675536 -0.00538817 0.0617796 255 255 255
0.000940204 -0.00532941 0.0616974 255 255 255
0.00159336 -0.00561748 0.0620346 255 255 255
0.00170951 -0.00556805 0.0619602 255 255 255
0.00181501 -0.0056205 0.0621082 255 255 255
-0.015227 -0.00448117 0.0542127 255 255 255
0.00109736 -0.00489518 0.0613318 255 255 255
0.00718637 -0.00549223 0.0635603 255 255 255
-0.00588324 -0.00568282 0.0557422 255 255 255
0.00927387 -0.00463177 0.0644331 255 255 255
0.012149 -0.00807286 0.0608237 255 255 255
0.0121525 -0.00807205 0.0608269 255 255 255
-0.00675643 -0.00485588 0.0551422 255 255 255
0.004869 -0.00380612 0.0620747 255 255 255
0.0067702 -0.00402662 0.0630888 255 255 255
0.00456846 -0.00309902 0.0621405 255 255 255
-0.00597864 -0.00491811 0.0535203 255 255 255
0.00394268 -0.0013493 0.0623278 255 255 255
0.0248719 -0.00275571 0.0693337 255 255 255
0.0070885 -0.00192764 0.0613122 255 255 255
0.00883854 -0.00248543 0.0610724 255 255 255
0.0151572 -0.00243231 0.0638745 255 255 255
0.00246137 -0.00128439 0.0597442 255 255 255
0.0151215 -0.00231398 0.0635941 255 255 255
0.0163708 -0.00220418 0.0638173 255 255 255
0.0229026 -0.000924733 0.0679517 255 255 255
-0.0103752 -0.00549565 0.0473998 255 255 255
-0.0099164 -0.00532274 0.0482262 255 255 255
0.0069918 -0.000642504 0.06031 255 255 255
0.00856356 -0.00154335 0.0604768 255 255 255
0.0235757 -0.0004225 0.0679604 255 255 255
-0.0146666 -0.00621342 0.0440648 255 255 255
-0.0142558 -0.00602767 0.0443093 255 255 255
-0.0128923 -0.00564179 0.045608 255 255 255
-0.00224395 -0.00564726 0.0502085 255 255 255
0.014092 -0.00157916 0.0612105 255 255 255
0.0250632 0.000623495 0.0677425 255 255 255
-0.0145215 -0.00601608 0.0440673 255 255 255
-0.0144223 -0.00597735 0.0440873 255 255 255
-0.013492 -0.00553291 0.0444962 255 255 255
-0.012163 -0.0050588 0.0458505 255 255 255
-0.0035521 -0.0046622 0.0497618 255 255 255
-0.00224888 -0.00374096 0.0501221 255 255 255
-0.00434369 -0.00221213 0.0500425 255 255 255
0.00941818 0.00120277 0.0585852 255 255 255
-0.00540166 -0.00145432 0.0498771 255 255 255
-0.00540166 -0.00145432 0.0498771 255 255 255
0.00682274 0.00267668 0.0578792 255 255 255
0.00778746 0.00232941 0.0581579 255 255 255
0.0101949 0.00168795 0.0581414 255 255 255
-0.00960514 -0.00105249 0.0479304 255 255 255
-0.00214809 -0.0011099 0.0499581 255 255 255
0.000810335 -0.00044922 0.052276 255 255 255
0.00367441 0.00355173 0.0575974 255 255 255
0.00398791 0.00333086 0.056712 255 255 255
0.00655128 0.00281561 0.0574957 255 255 255
-0.0113555 6.24873e-06 0.0470443 255 255 255
0.00329927 0.0040299 0.0560225 255 255 255
0.00329927 0.0040299 0.0560225 255 255 255
0.0034524 0.00389498 0.0561472 255 255 255
0.00392156 0.0039978 0.0560833 255 255 255
0.00703619 0.00354749 0.0569991 255 255 255
-0.0118859 0.0004798 0.0467855 255 255 255
-0.00445326 0.00130011 0.0498958 255 255 255
-0.0028454 0.00110779 0.0498115 255 255 255
-0.00224687 0.000867622 0.0499657 255 255 255
0.00334051 0.00451983 0.0554571 255 255 255
-0.0122968 0.00101027 0.0465579 255 255 255
-0.0122432 0.00178248 0.046528 255 255 255
-0.0114533 0.00175021 0.0469358 255 255 255
-0.0015228 0.000841768 0.0497345 255 255 255
-0.00395791 0.00297877 0.0498234 255 255 255
-0.00214989 0.00359888 0.0497875 255 255 255
-0.0154173 0.00421798 0.0446034 255 255 255
-0.00354192 0.00553178 0.0494319 255 255 255
-0.0118315 -0.00499896 0.057806 255 255 255
-0.0105931 -0.00485181 0.0581881 255 255 255
-0.00922779 -0.00484274 0.0588376 255 255 255
-0.0128236 -0.00464069 0.056118 255 255 255
0.000411952 -0.00559128 0.0617138 255 255 255
0.000834224 -0.00539715 0.0617625 255 255 255
-0.0161645 -0.00458924 0.0541062 255 255 255
-0.0161647 -0.00458841 0.0541065 255 255 255
0.000723437 -0.00490085 0.0612788 255 255 255
0.00259436 -0.0047924 0.0622971 255 255 255
0.00259436 -0.0047924 0.0622971 255 255 255
0.00785203 -0.00538183 0.0639551 255 255 255
0.0138954 -0.00719385 0.0640151 255 255 255
-0.0145722 -0.00450656 0.0535761 255 255 255
0.0123491 -0.00805587 0.0608937 255 255 255
0.0184289 -0.00396786 0.0675407 255 255 255
0.00188906 -0.002931 0.0608278 255 255 255
0.0235252 -0.00258113 0.0696163 255 255 255
0.00606388 -0.00193537 0.0612289 255 255 255
0.00966159 -0.00283938 0.0615185 255 255 255
0.0251678 -0.00228406 0.0691268 255 255 255
0.00353844 -0.00105816 0.0596033 255 255 255
0.00686678 -0.00153302 0.0605138 255 255 255
-0.00438413 -0.00581556 0.050092 255 255 255
-0.0109476 -0.00492106 0.0468299 255 255 255
-0.00471793 -0.00512875 0.0495505 255 255 255
-0.00571901 -0.00447748 0.0492547 255 255 255
-0.00362767 -0.00441144 0.049757 255 255 255
0.014011 -0.000505806 0.0604449 255 255 255
0.0130218 -0.000364893 0.0598397 255 255 255
0.0138653 0.000735773 0.0601863 255 255 255
-0.0050054 -0.00161187 0.04988 255 255 255
0.0100839 0.00177329 0.0580378 255 255 255
0.017252 0.0037307 0.0634367 255 255 255
0.00331046 0.00365729 0.056937 255 255 255
0.00380656 0.00345488 0.0565965 255 255 255
-0.000855413 -0.000924714 0.0497149 255 255 255
-0.00480789 0.00115553 0.0498637 255 255 255
-0.000860796 0.000185203 0.0496491 255 255 255
0.00481089 0.00455459 0.0562942 255 255 255
0.00619581 0.00405188 0.0566597 255 255 255
5.29972e-05 0.00238477 0.0517583 255 255 255
-0.0120242 0.00231367 0.0466357 255 255 255
-0.00964025 0.00311703 0.0477469 255 255 255
-0.0129393 0.00429165 0.0457602 255 255 255
-0.0129393 0.00429165 0.0457602 255 255 255
-0.00475685 0.00562796 0.0490911 255 255 255
-0.00801463 0.00587123 0.0477795 255 255 255
-0.00667877 -0.00621429 0.0617675 255 255 255
-0.00814407 -0.00538654 0.0594037 255 255 255
-0.00777912 -0.00547821 0.059238 255 255 255
0.00321802 -0.00494835 0.0623201 255 255 255
-0.0018227 -0.00461778 0.0590296 255 255 255
0.000421799 -0.00301653 0.0604065 255 255 255
0.0237075 -0.00245731 0.0691386 255 255 255
0.00541639 -0.00185676 0.0608141 255 255 255
0.00871024 -0.00253504 0.0611748 255 255 255
-0.00377258 -0.00594722 0.0510675 255 255 255
-0.0114383 -0.00534862 0.0470531 255 255 255
-0.00673851 -0.0050943 0.0495648 255 255 255
-0.0102499 -0.00535759 0.0470885 255 255 255
-0.00335905 -0.00409529 0.0496292 255 255 255
0.00545296 0.00420175 0.0616849 255 255 255
0.006051 0.00438811 0.062253 255 255 255
-0.00953213 -0.00237776 0.0479894 255 255 255
0.00939981 0.001218 0.0588413 255 255 255
0.0135911 0.000453683 0.0599274 255 255 255
0.000251301 -0.00132232 0.0520496 255 255 255
-0.0114174 -0.000145166 0.04704 255 255 255
0.00843821 0.00339277 0.0570387 255 255 255
-0.0111866 0.000670816 0.04711 255 255 255
-0.00832083 0.00567906 0.047645 255 255 255
0.000647998 -0.00534128 0.0615404 255 255 255
-0.00171112 -0.00420317 0.0606618 255 255 255
-0.000390438 -0.00411781 0.060396 255 255 255
0.00308238 -0.00364426 0.0617552 255 255 255
0.0044456 -0.00328874 0.0620621 255 255 255
0.000947439 -0.00263801 0.0606656 255 255 255
-0.00250262 -0.00654648 0.0529732 255 255 255
0.0095171 -0.00275611 0.0613667 255 255 255
0.00816229 -0.0017537 0.060597 255 255 255
-0.0113889 -0.00542601 0.0472373 255 255 255
-0.00364937 -0.00591316 0.0500304 255 255 255
-0.00118753 -0.00665129 0.0502741 255 255 255
0.00241542 -0.000607348 0.0588053 255 255 255
-0.00498973 -0.00455708 0.0494461 255 255 255
0.00620225 0.00283586 0.0583092 255 255 255
-0.00108161 -0.00158311 0.049771 255 255 255
0.00814031 0.00300799 0.0572255 255 255 255
-0.00985371 0.00536554 0.0467937 255 255 255
0.00062896 -0.00465573 0.0609004 255 255 255
0.00351907 -0.0043384 0.0621877 255 255 255
0.00817468 -0.00477533 0.0641012 255 255 255
0.000404436 -0.00343328 0.060418 255 255 255
0.000395993 -0.00344115 0.0604025 255 255 255
0.0238076 -0.00312461 0.0696357 255 255 255
0.023183 -0.000725755 0.067933 255 255 255
0.0242167 -0.000616732 0.0678271 255 255 255
-0.00108307 -0.00519829 0.0499486 255 255 255
-0.00364295 -0.0023784 0.0498854 255 255 255
-0.00364295 -0.0023784 0.0498854 255 255 255
-0.00412669 -0.00580335 0.0509294 255 255 255
0.015018 0.00558905 0.0616167 255 255 255
-0.0141801 0.00302625 0.045578 255 255 255
-0.00610879 -0.00548712 0.0569093 255 255 255
-0.00522528 -0.00533044 0.0501886 255 255 255
-0.0110205 0.000486817 0.0471936 255 255 255
-0.0103842 0.00203336 0.0473722 255 255 255
-0.00715382 0.00365058 0.0487064 255 255 255
0.00283533 -0.00408262 0.0618687 255 255 255
0.0120159 -0.000931892 0.0595594 255 255 255
-0.00423404 -0.00566689 0.0498593 255 255 255
-0.00446055 0.001461 0.0499055 255 255 255
-0.00446055 0.001461 0.0499055 255 255 255
-0.00307597 0.00239392 0.0495608 255 255 255
-0.00436147 0.000376847 0.049914 255 255 255
0.00381911 0.00123626 0.0651849 255 255 255
0.0136234 -0.00598498 0.0625532 255 255 255
-0.0155917 -0.00480775 0.0553832 255 255 255
-0.012755 -0.00487375 0.0571258 255 255 255
-0.0112141 -0.00489189 0.0579666 255 255 255
-0.0104067 -0.00483956 0.058272 255 255 255
-0.00932731 -0.00470174 0.0583578 255 255 255
-0.0166276 -0.00455325 0.0525181 255 255 255
0.000501039 -0.00547656 0.0616699 255 255 255
0.00171822 -0.00553782 0.0619956 255 255 255
-0.0134745 -0.00451712 0.0533887 255 255 255
-0.00744412 -0.00479362 0.0565708 255 255 255
-0.0123806 -0.0045117 0.0537015 255 255 255
0.000242947 -0.00400872 0.0604303 255 255 255
0.00372543 -0.00495936 0.0624424 255 255 255
0.00421106 -0.00432154 0.0623042 255 255 255
-0.00684681 -0.00484203 0.0553285 255 255 255
-0.00167899 -0.00465132 0.0584592 255 255 255
-0.00133823 -0.0046015 0.0583012 255 255 255
0.00193685 -0.00374972 0.0610705 255 255 255
0.0047368 -0.00376681 0.0619205 255 255 255
0.0216669 -0.00357701 0.0708824 255 255 255
0.0219759 -0.00393208 0.0709072 255 255 255
-0.00439742 -0.00574771 0.0526727 255 255 255
0.00616788 -0.00182697 0.0616807 255 255 255
0.00863818 -0.00284735 0.0615472 255 255 255
0.0177318 -0.00337838 0.065921 255 255 255
0.00188469 -0.000899976 0.059356 255 255 255
0.0021422 -0.00117084 0.0596268 255 255 255
0.00235752 -0.00124729 0.0596326 255 255 255
0.00369144 -0.00124303 0.0597268 255 255 255
0.00905847 -0.00291706 0.0614703 255 255 255
0.00943513 -0.00293774 0.0616517 255 255 255
0.0109557 -0.00320163 0.0619725 255 255 255
0.0242884 -0.00255488 0.0695378 255 255 255
-0.0021333 -0.006381 0.0513266 255 255 255
0.0152727 -0.00234228 0.0636514 255 255 255
0.0222123 -0.00118392 0.0682271 255 255 255
-0.0134061 -0.00588008 0.0451491 255 255 255
-0.0123617 -0.00562136 0.0463985 255 255 255
-0.0118262 -0.00522595 0.0465172 255 255 255
-0.0106724 -0.00541255 0.047419 255 255 255
-0.0103743 -0.00549554 0.0474001 255 255 255
-0.0103706 -0.0053835 0.047139 255 255 255
0.0187541 -0.00110717 0.0647137 255 255 255
0.0227826 -0.000946861 0.0680283 255 255 255
0.0243352 -0.00128128 0.0682038 255 255 255
0.0243352 -0.00128128 0.0682038 255 255 255
0.00870446 0.00125249 0.0586314 255 255 255
-0.00214739 -0.00212244 0.0499934 255 255 255
0.0149527 0.00532712 0.0617036 255 255 255
-0.00974698 0.00144363 0.0477606 255 255 255
-0.00974679 0.00144106 0.0477558 255 255 255
-0.00180729 -0.0003597 0.0496907 255 255 255
-0.0133833 0.00471857 0.0451966 255 255 255
-0.00510989 0.00528706 0.04911 255 255 255
-0.00215361 0.00468783 0.0497316 255 255 255
-0.00792378 -0.00548846 0.0593218 255 255 255
-0.0178382 -0.00455079 0.0526608 255 255 255
-0.016415 -0.00459363 0.0539851 255 255 255
-0.0163395 -0.00448545 0.0536977 255 255 255
-0.0163395 -0.00448545 0.0536977 255 255 255
-0.0161747 -0.00453446 0.0539648 255 255 255
-0.0174685 -0.00455172 0.0526417 255 255 255
-0.0174686 -0.00454573 0.0526453 255 255 255
-0.0170289 -0.00453073 0.0529574 255 255 255
-0.0166965 -0.00454195 0.0527049 255 255 255
-0.0137283 -0.00446036 0.0549081 255 255 255
0.000831138 -0.00540457 0.0617557 255 255 255
-0.00226841 -0.00454209 0.0603474 255 255 255
0.00600793 -0.00316611 0.0635661 255 255 255
0.0209575 -0.00389484 0.0711267 255 255 255
0.00199554 -0.00312816 0.0608527 255 255 255
0.0127979 -0.00391801 0.0660704 255 255 255
-0.0115247 -0.00462112 0.0509253 255 255 255
0.00394431 -0.00134351 0.0623354 255 255 255
0.0234681 -0.0029955 0.0697402 255 255 255
-0.000540232 -0.00497752 0.0546028 255 255 255
0.017815 -0.00283919 0.0652861 255 255 255
0.0190439 -0.00303926 0.0661974 255 255 255
-0.0141812 -0.00649558 0.045103 255 255 255
-0.0137844 -0.00627644 0.0453086 255 255 255
-0.0110816 -0.00534078 0.0473785 255 255 255
-0.00423143 -0.00576383 0.0511796 255 255 255
0.0197251 -0.00206912 0.0663979 255 255 255
0.0237838 -0.00208526 0.0685666 255 255 255
0.0240755 -0.00195152 0.0685595 255 255 255
-0.0134984 -0.00590199 0.0450484 255 255 255
-0.0134984 -0.00590199 0.0450484 255 255 255
-0.011434 -0.00516465 0.0467727 255 255 255
-0.011131 -0.00529859 0.0472454 255 255 255
-0.0112251 -0.00520555 0.0468226 255 255 255
-0.00493444 -0.00565125 0.050073 255 255 255
-0.00428717 -0.00574728 0.0499884 255 255 255
-0.00336895 -0.00607643 0.0499541 255 255 255
0.0155017 -0.00200253 0.0629976 255 255 255
0.0194667 -0.00162946 0.0655574 255 255 255
-0.0122679 -0.0050914 0.0457447 255 255 255
-0.00571796 -0.00445566 0.0492879 255 255 255
-0.00214033 -0.00570146 0.050184 255 255 255
0.00829389 0.00121687 0.0591472 255 255 255
0.00481565 0.00291256 0.0572671 255 255 255
0.00325128 0.00431478 0.0558384 255 255 255
-0.00257901 0.00113302 0.0499052 255 255 255
-0.00671385 0.00349108 0.0490403 255 255 255
-0.00328015 0.00597542 0.0491155 255 255 255
-0.0146984 -0.00502834 0.05632 255 255 255
-0.0176602 -0.00453543 0.0528305 255 255 255
0.0009828 -0.00565302 0.0620386 255 255 255
-0.00209724 -0.00480154 0.0586677 255 255 255
0.00994221 -0.00322211 0.0618602 255 255 255
0.0187197 -0.00357823 0.0662162 255 255 255
-0.00580854 -0.0050439 0.0492499 255 255 255
-0.00259944 -0.00518955 0.0502168 255 255 255
0.016232 -0.00147794 0.0627012 255 255 255
-0.00352783 -0.00399995 0.0496307 255 255 255
0.00826808 0.00125641 0.0594191 255 255 255
0.00275608 0.00432644 0.0555121 255 255 255
0.00318728 0.00414833 0.0559291 255 255 255
0.0085815 0.00375195 0.0570734 255 255 255
-0.00937259 0.0032412 0.0478664 255 255 255
-0.00494181 0.00539669 0.0490339 255 255 255
-0.00988891 0.00588013 0.046666 255 255 255
-0.00920163 -0.0053852 0.0603421 255 255 255
0.00153616 -0.00557766 0.062691 255 255 255
0.0240223 -0.00411787 0.0697624 255 255 255
-0.00609962 -0.00476981 0.0521879 255 255 255
0.0102106 -0.00327726 0.0621208 255 255 255
0.0188241 -0.00341383 0.06676 255 255 255
-0.00510016 -0.00501124 0.0518539 255 255 255
0.0163858 -0.00247509 0.0648351 255 255 255
-0.0077286 -0.00520068 0.0494443 255 255 255
0.00316814 -0.000936501 0.0594382 255 255 255
-0.00886279 -0.00529842 0.0477955 255 255 255
-0.00794106 -0.00522068 0.0485889 255 255 255
0.0107004 -0.00227587 0.0607377 255 255 255
-0.0092469 -0.0020497 0.0481501 255 255 255
0.00796921 0.00237466 0.0580642 255 255 255
0.0111446 0.00173169 0.0589629 255 255 255
0.00345848 0.00418544 0.0559539 255 255 255
-0.00741049 -0.00480158 0.0567563 255 255 255
0.0143341 -0.00261638 0.0624801 255 255 255
-0.00360941 -0.00586933 0.0504182 255 255 255
0.0117838 -0.00194303 0.0600329 255 255 255
-0.00526296 -0.00119232 0.0498043 255 255 255
0.00962037 0.00140602 0.0584321 255 255 255
0.0104753 0.00148683 0.0587992 255 255 255
0.00992161 0.00192404 0.0579399 255 255 255
0.000786681 0.00333122 0.0520565 255 255 255
-0.00774029 -0.00467534 0.0568551 255 255 255
-0.000846007 -0.00448923 0.0606603 255 255 255
0.0036163 -0.00472615 0.0622507 255 255 255
0.0214322 -0.00292372 0.0705375 255 255 255
-0.00496335 -0.0053525 0.0528007 255 255 255
0.0144659 0.00560042 0.0614152 255 255 255
-0.0105681 0.00300646 0.0473375 255 255 255
-0.0101894 0.00495339 0.0466614 255 255 255
-0.000479555 -0.00480275 0.0606752 255 255 255
-0.000474558 -0.00480245 0.0606783 255 255 255
-0.000812195 -0.00456425 0.0586909 255 255 255
0.0251889 -0.00283166 0.0693184 255 255 255
0.0135125 -0.00108677 0.0604556 255 255 255
-0.00567967 -0.0051907 0.0495949 255 255 255
-0.00284039 -0.00642638 0.0537722 255 255 255
-0.00388082 -0.00581244 0.0518765 255 255 255
0.025473 -0.00128494 0.0687348 255 255 255
-0.00802088 -0.0051065 0.0495335 255 255 255
0.0048809 0.00363341 0.0617659 255 255 255
-0.00850113 -0.00553603 0.060209 255 255 255
-0.00683719 -0.00599962 0.0611584 255 255 255
-0.0132024 -0.00490359 0.0578942 255 255 255
-0.0112507 -0.0046624 0.0588893 255 255 255
-0.0122723 -0.00473829 0.0569451 255 255 255
-0.0117409 -0.00489436 0.0577075 255 255 255
-0.0178176 -0.00459799 0.0533084 255 255 255
-0.0175836 -0.00452869 0.0531074 255 255 255
-0.0100772 -0.00466409 0.0578917 255 255 255
-0.0169229 -0.00454532 0.0526588 255 255 255
0.000363236 -0.00546852 0.0616508 255 255 255
-0.00202825 -0.00460612 0.0597102 255 255 255
0.0019702 -0.00523706 0.0620012 255 255 255
0.00718931 -0.00548387 0.0635686 255 255 255
-0.0134956 -0.00452959 0.0531856 255 255 255
-0.0134954 -0.0045285 0.0531859 255 255 255
0.000581222 -0.00433475 0.060727 255 255 255
0.0101636 -0.00477178 0.0648744 255 255 255
-0.0129575 -0.00454866 0.0524603 255 255 255
0.0208013 -0.00385028 0.0710576 255 255 255
0.0208013 -0.00385028 0.0710576 255 255 255
0.0115896 -0.00814375 0.0610127 255 255 255
0.0222247 -0.00308195 0.0706197 255 255 255
0.0222091 -0.00309544 0.070599 255 255 255
-0.00493049 -0.00574302 0.0537434 255 255 255
0.00157568 -0.00075851 0.0615973 255 255 255
0.00382081 -0.00131885 0.061929 255 255 255
0.00782845 -0.0027534 0.0625549 255 255 255
0.0217987 -0.00271944 0.070099 255 255 255
0.0227022 -0.00267116 0.0700735 255 255 255
-0.0109178 -0.0046242 0.0508688 255 255 255
-0.000803563 -0.00497402 0.0549133 255 255 255
0.00211095 -0.00123302 0.0599705 255 255 255
0.00276097 -0.00145369 0.0601846 255 255 255
-0.0101942 -0.00478932 0.049961 255 255 255
-0.0101867 -0.00478261 0.0499687 255 255 255
0.00164548 -0.000853735 0.0589158 255 255 255
0.0164367 -0.00239197 0.0643425 255 255 255
0.0171705 -0.00237823 0.0652891 255 255 255
0.0170241 -0.00237355 0.0650818 255 255 255
0.0209669 -0.00130935 0.0684587 255 255 255
-0.0101132 -0.0054803 0.0482528 255 255 255
-0.00317723 -0.00570571 0.0516182 255 255 255
0.0130303 -0.00299486 0.0614123 255 255 255
0.016548 -0.00196698 0.0636813 255 255 255
0.0177835 -0.0024382 0.0648199 255 255 255
-0.011719 -0.00547181 0.04697 255 255 255
-0.0105391 -0.00536012 0.0473086 255 255 255
-0.00887225 -0.00514893 0.0486053 255 255 255
-0.00757996 -0.00519767 0.0487397 255 255 255
-0.00722157 -0.00510254 0.0493665 255 255 255
-0.00314777 -0.00573985 0.0504756 255 255 255
0.021601 0.000618956 0.0669989 255 255 255
-0.0120784 -0.00527573 0.0462517 255 255 255
0.0160846 -0.00110649 0.0623445 255 255 255
0.0160846 -0.00110649 0.0623445 255 255 255
-0.012408 -0.00502577 0.0453566 255 255 255
0.0139636 -0.000126852 0.0601959 255 255 255
0.0074984 0.00244658 0.0582215 255 255 255
0.0111043 0.0011838 0.0591214 255 255 255
0.00704484 0.00286578 0.0575258 255 255 255
0.00879298 0.00262864 0.0575171 255 255 255
0.00878582 0.00260779 0.0575014 255 255 255
-0.0106419 0.00125488 0.0473438 255 255 255
0.00720699 0.00362988 0.0570026 255 255 255
-0.0100912 0.00175127 0.0475766 255 255 255
-0.00482529 0.00222189 0.0498089 255 255 255
-0.0116721 0.00333809 0.0467358 255 255 255
-0.00669524 0.00390988 0.04886 255 255 255
-0.00669521 0.00391033 0.0488601 255 255 255
-0.00617927 0.00349558 0.0492989 255 255 255
-0.00445457 0.00333169 0.0497387 255 255 255
-0.00611341 0.0044863 0.0489279 255 255 255
-0.0107733 -0.0047415 0.0593515 255 255 255
-0.0101594 -0.00492368 0.0590186 255 255 255
-0.00915053 -0.00504019 0.0590938 255 255 255
-0.0166671 -0.00450999 0.0535188 255 255 255
-0.0157685 -0.00449494 0.0539711 255 255 255
-0.0136925 -0.00448068 0.0551268 255 255 255
0.000144801 -0.00564151 0.0617524 255 255 255
0.000678991 -0.00550481 0.0618049 255 255 255
-0.012412 -0.00448383 0.0545954 255 255 255
0.00583275 -0.00425321 0.0646929 255 255 255
0.00344325 -0.00159508 0.0621024 255 255 255
0.0122567 -0.00820027 0.0611755 255 255 255
0.0131539 -0.00774712 0.0617351 255 255 255
0.0133125 -0.00772637 0.0620469 255 255 255
0.0228948 -0.00389681 0.0698105 255 255 255
-0.00121903 -0.00497397 0.0546624 255 255 255
0.00190928 -0.000840631 0.0605118 255 255 255
0.0231448 -0.00247649 0.0688622 255 255 255
0.00235168 -0.000677888 0.0590858 255 255 255
0.00896055 -0.0026007 0.0610516 255 255 255
0.0190308 -0.00225422 0.0659386 255 255 255
-0.00896009 -0.00541602 0.0488521 255 255 255
-0.00705204 -0.00522355 0.0498284 255 255 255
-0.00869605 -0.00513793 0.0487074 255 255 255
-0.00551274 -0.00520731 0.0497358 255 255 255
-0.00488478 -0.00575176 0.0502527 255 255 255
-0.0036467 -0.00584173 0.0504327 255 255 255
-0.00347934 -0.00601114 0.0501582 255 255 255
0.00887415 -0.00125119 0.0604584 255 255 255
-0.0146553 -0.00627748 0.0443041 255 255 255
-0.0122391 -0.00535341 0.0461535 255 255 255
-0.0109471 -0.00493921 0.0468096 255 255 255
-0.0118222 -0.00488729 0.0460774 255 255 255
-0.011601 -0.00479544 0.0462025 255 255 255
-0.0022453 -0.00528821 0.0501798 255 255 255
0.0123023 -0.000919349 0.059767 255 255 255
0.0161163 -0.000620917 0.0619986 255 255 255
0.0160878 -0.000673672 0.0619618 255 255 255
0.00687727 0.00265636 0.0581265 255 255 255
0.00722002 0.00267041 0.0580752 255 255 255
0.00368759 0.00376907 0.0563409 255 255 255
0.00368759 0.00376907 0.0563409 255 255 255
-0.0119748 0.0026406 0.0466768 255 255 255
-0.0113719 0.00280293 0.046935 255 255 255
-0.00855037 0.00343978 0.0481766 255 255 255
-0.00443325 0.00493845 0.0494573 255 255 255
-0.00968283 -0.0050548 0.0592659 255 255 255
-0.0152434 -0.00464771 0.0546936 255 255 255
0.00174941 -0.00565417 0.0628583 255 255 255
-0.00377137 -0.00494096 0.0592868 255 255 255
-0.000298878 -0.00419029 0.0605437 255 255 255
0.000406716 -0.00303688 0.0603816 255 255 255
-0.00205896 -0.00486246 0.0567321 255 255 255
0.00391877 -0.00241432 0.0620685 255 255 255
0.0160634 -0.00571907 0.0648057 255 255 255
0.0182001 -0.00391328 0.0681501 255 255 255
-0.00186701 -0.00508481 0.055325 255 255 255
0.0174188 -0.00418916 0.0659636 255 255 255
0.00160397 -0.00101638 0.0594635 255 255 255
-0.013067 -0.0061579 0.0461854 255 255 255
-0.0104545 -0.00550596 0.0480389 255 255 255
-0.00776433 -0.00503373 0.0499974 255 255 255
0.0065095 -0.000479052 0.060385 255 255 255
0.0103168 -0.00249161 0.0607256 255 255 255
-0.00951041 -0.00518553 0.0482674 255 255 255
-0.00623476 -0.0050267 0.0496468 255 255 255
-0.00519855 -0.00552637 0.0502107 255 255 255
0.000519837 -0.00464647 0.0533138 255 255 255
0.0127354 -0.0021459 0.0606776 255 255 255
0.0127261 -0.00215514 0.0606666 255 255 255
-0.0104133 -0.00505402 0.0469522 255 255 255
-0.00954049 -0.00534585 0.0473277 255 255 255
-0.00902035 -0.0050327 0.0475816 255 255 255
-0.00535402 -0.00525041 0.0495784 255 255 255
0.013668 -0.00171338 0.0610535 255 255 255
0.0127651 -0.00057153 0.0598051 255 255 255
-0.00955211 -0.00164902 0.0479421 255 255 255
-0.0116695 0.000159941 0.0468859 255 255 255
0.00679345 0.00345952 0.0570048 255 255 255
0.00373191 0.00460748 0.056066 255 255 255
0.00451579 0.00419368 0.0562245 255 255 255
-0.00830825 0.00338207 0.0483309 255 255 255
-0.00294669 0.00330695 0.0496196 255 255 255
-0.013049 0.00481724 0.0453576 255 255 255
-0.00356337 0.00532746 0.0493464 255 255 255
-0.0026176 0.00554491 0.049746 255 255 255
-0.0096024 -0.00528521 0.060251 255 255 255
-0.00755257 -0.00534534 0.0604567 255 255 255
-0.00475106 -0.00637914 0.0576805 255 255 255
-0.00244301 -0.00481907 0.0579156 255 255 255
-0.00213867 -0.00482486 0.0576882 255 255 255
-0.0119571 -0.00570896 0.0470902 255 255 255
-0.00091061 -0.0051589 0.0532925 255 255 255
0.017678 -0.00194921 0.0645825 255 255 255
-0.00284082 -0.0057625 0.0506225 255 255 255
0.00908826 0.000983787 0.0598059 255 255 255
-0.00932662 -0.00156774 0.0480471 255 255 255
0.0111441 0.00171407 0.0589515 255 255 255
0.00680806 0.0029997 0.0573582 255 255 255
-0.00509009 0.000861802 0.0497351 255 255 255
-0.00990129 0.00324784 0.0475896 255 255 255
-0.0010773 0.00224433 0.0496299 255 255 255
-0.00765739 -0.00495274 0.0578833 255 255 255
-0.00708733 -0.00520923 0.0572653 255 255 255
-0.00105238 -0.00455644 0.0599931 255 255 255
0.0230182 -0.00395329 0.0698575 255 255 255
-0.00527152 -0.00534787 0.0534322 255 255 255
-0.00150851 -0.00511642 0.0546386 255 255 255
0.00216206 -0.000905501 0.0592731 255 255 255
-0.012866 -0.00602592 0.0463479 255 255 255
-0.0143939 -0.00662997 0.045069 255 255 255
0.00812509 0.00150305 0.0590207 255 255 255
-0.00252765 -0.0046205 0.0604181 255 255 255
0.0026512 -0.00394913 0.0615307 255 255 255
0.0046727 -0.00292231 0.0619589 255 255 255
-0.00496626 -0.00536857 0.052787 255 255 255
-0.000365553 -0.0050013 0.0532759 255 255 255
0.00226675 -0.000130115 0.0590491 255 255 255
0.0179487 -9.82514e-07 0.0635415 255 255 255
-0.0109204 -0.0017528 0.047334 255 255 255
-0.00240954 -0.00341755 0.0501682 255 255 255
0.00218277 -0.00574907 0.0627734 255 255 255
0.0188621 -0.00370453 0.0682162 255 255 255
-0.0049126 9.75471e-05 0.0498167 255 255 255
0.0153375 -0.00151525 0.0627493 255 255 255
-0.0124486 -0.0050718 0.045878 255 255 255
-0.00341235 -0.00644526 0.054812 255 255 255
0.0104434 0.00309122 0.0579064 255 255 255
-0.00919834 -0.00473835 0.0586348 255 255 255
0.00703692 -0.00565414 0.0644884 255 255 255
-0.0190802 -0.00550745 0.0545529 255 255 255
-0.0179307 -0.00544801 0.0551386 255 255 255
-0.0179307 -0.00544801 0.0551386 255 255 255
-0.00849676 -0.00562657 0.060646 255 255 255
-0.0128836 -0.00480249 0.057848 255 255 255
-0.0106092 -0.00489329 0.0592565 255 255 255
-0.0183352 -0.00471479 0.0535477 255 255 255
-0.0175976 -0.00484555 0.0544182 255 255 255
-0.00845766 -0.00475633 0.0589835 255 255 255
-0.0133153 -0.00445316 0.0550904 255 255 255
-0.00257967 -0.00453462 0.0603953 255 255 255
-0.0177005 -0.00466643 0.0506494 255 255 255
0.00256157 -0.00476116 0.0621261 255 255 255
0.00836663 -0.00411683 0.0639633 255 255 255
-0.00375145 -0.00626634 0.0539795 255 255 255
0.0223444 -0.00289082 0.0704492 255 255 255
-0.00141835 -0.00510928 0.0545543 255 255 255
0.00370265 -0.00102771 0.0595773 255 255 255
0.00551749 -0.00179415 0.0606971 255 255 255
0.00512533 -0.00148514 0.0602031 255 255 255
0.0064139 -0.00185079 0.0611452 255 255 255
0.00648364 -0.00173408 0.0609078 255 255 255
-0.00533967 -0.0049702 0.0521992 255 255 255
-3.7533e-05 -0.00496678 0.054435 255 255 255
-3.71648e-05 -0.0049665 0.0544354 255 255 255
0.0238801 -0.00186773 0.0683797 255 255 255
0.0238801 -0.00186773 0.0683797 255 255 255
-0.00845755 -0.00531111 0.0491349 255 255 255
0.0151612 -0.00202386 0.0629804 255 255 255
0.0230233 6.36209e-05 0.0675252 255 255 255
0.0244646 -0.000919834 0.0681323 255 255 255
-0.0121167 -0.00566392 0.0468487 255 255 255
-0.00873551 -0.00523154 0.0488349 255 255 255
-0.00733673 -0.00512935 0.0494505 255 255 255
-0.00551721 -0.00529351 0.0502596 255 255 255
-0.0111077 -0.00528876 0.0469105 255 255 255
-0.00466322 -0.00569609 0.0496837 255 255 255
-0.00229536 -0.00592295 0.050355 255 255 255
0.0129631 -0.00130688 0.0603632 255 255 255
-0.015243 -0.00622153 0.0438263 255 255 255
-0.015243 -0.00622153 0.0438263 255 255 255
-0.0152007 -0.00606014 0.043714 255 255 255
-0.0138774 -0.00569001 0.0442707 255 255 255
-0.0019111 -0.00636415 0.0499346 255 255 255
0.00431407 0.00324022 0.0576684 255 255 255
0.00618649 0.00275986 0.0581956 255 255 255
0.00619288 0.00278265 0.0582075 255 255 255
0.00923338 0.00130141 0.0591811 255 255 255
0.0109274 0.00130676 0.0590401 255 255 255
-0.00445607 0.000181321 0.0499568 255 255 255
-0.00445607 0.000181321 0.0499568 255 255 255
0.00848064 0.00320008 0.0571228 255 255 255
-0.00695462 0.0024256 0.0490547 255 255 255
0.000663661 0.00159319 0.0521025 255 255 255
-0.0142818 0.00318121 0.045539 255 255 255
-0.0142802 0.00333396 0.0454835 255 255 255
-0.00833506 0.0035495 0.048195 255 255 255
-0.0144235 0.00406158 0.0451997 255 255 255
-0.0133099 0.00493616 0.0449711 255 255 255
-0.0133099 0.00493616 0.0449711 255 255 255
-0.00457005 0.00529208 0.0489797 255 255 255
-0.00225986 0.00525449 0.0497766 255 255 255
-0.00214938 0.00420529 0.049772 255 255 255
-0.00215394 0.00531075 0.0497166 255 255 255
-0.00214428 0.00599433 0.0496908 255 255 255
-0.0193291 -0.00586535 0.054804 255 255 255
-0.0193226 -0.00592495 0.0549231 255 255 255
-0.0100834 -0.00496991 0.0598116 255 255 255
-0.0150593 -0.00456062 0.0546021 255 255 255
-0.00591682 -0.00609883 0.0585595 255 255 255
-0.0117694 -0.00442947 0.0557943 255 255 255
-0.0117686 -0.00442897 0.055795 255 255 255
-0.00397871 -0.00469259 0.0605533 255 255 255
0.000682271 -0.00549408 0.0618067 255 255 255
0.000971226 -0.0054302 0.0619245 255 255 255
-0.015653 -0.00454196 0.0528045 255 255 255
-0.000453264 -0.00441618 0.0605103 255 255 255
0.00145672 -0.00438173 0.061079 255 255 255
0.00814026 -0.00453308 0.0639484 255 255 255
-0.011435 -0.00456175 0.052515 255 255 255
0.00356426 -0.00173244 0.0609363 255 255 255
0.0118398 -0.008032 0.0607069 255 255 255
0.0232193 -0.00313286 0.0699841 255 255 255
0.0232193 -0.00313286 0.0699841 255 255 255
0.0162589 -0.00228579 0.0641107 255 255 255
-0.0065537 -0.00483887 0.0510352 255 255 255
-0.0010378 -0.00521707 0.0532474 255 255 255
0.0152934 -0.00211955 0.0632768 255 255 255
-0.0121788 -0.005552 0.0465033 255 255 255
-0.0140336 -0.0060835 0.0446259 255 255 255
-0.0146103 -0.00591659 0.0439381 255 255 255
-0.00376814 -0.00162798 0.0498542 255 255 255
0.0038301 0.00379348 0.0562819 255 255 255
0.00382955 0.00379246 0.0562809 255 255 255
0.00419495 0.00358012 0.0564321 255 255 255
0.00659638 0.00296191 0.0573609 255 255 255
-0.00383358 0.000110844 0.0498368 255 255 255
-0.00520286 0.0039784 0.0495734 255 255 255
-0.0138357 0.00493456 0.0447898 255 255 255
-0.0035172 0.00575306 0.04916 255 255 255
-0.0069951 -0.00622471 0.0624318 255 255 255
-0.0069951 -0.00622471 0.0624318 255 255 255
-0.00611731 -0.00628577 0.0605475 255 255 255
-0.00922587 -0.00484271 0.0588381 255 255 255
-0.0161022 -0.00466782 0.0542883 255 255 255
-0.0160951 -0.00466553 0.054293 255 255 255
-0.0158455 -0.00465881 0.0543982 255 255 255
-0.0153468 -0.00452577 0.0543182 255 255 255
-0.00343871 -0.00491507 0.0587476 255 255 255
0.00195909 -0.00540095 0.0620591 255 255 255
-0.0122861 -0.00452039 0.0533402 255 255 255
0.00777301 -0.00516837 0.0638478 255 255 255
-0.00387194 -0.00645111 0.0558445 255 255 255
0.00990732 -0.00410565 0.0645052 255 255 255
-0.00898629 -0.00486967 0.0501073 255 255 255
-9.91651e-05 -0.00496364 0.0546186 255 255 255
0.00784853 -0.00186854 0.0606499 255 255 255
0.00814217 -0.00177282 0.0605892 255 255 255
-0.0050138 -0.00540493 0.0505821 255 255 255
-0.000296916 -0.00485506 0.0528908 255 255 255
-0.0150165 -0.00641512 0.044237 255 255 255
-0.0149035 -0.00635093 0.0441484 255 255 255
-0.0126912 -0.00561744 0.0459511 255 255 255
-0.0146969 -0.006141 0.0439675 255 255 255
0.00959135 0.00120159 0.0591868 255 255 255
-0.00945462 0.00135115 0.0479149 255 255 255
-0.00724677 0.0035785 0.0487461 255 255 255
-0.019499 -0.00596068 0.0548441 255 255 255
-0.0104479 -0.00482698 0.0594468 255 255 255
-0.0115672 -0.0048246 0.0576779 255 255 255
0.00204838 -0.00559328 0.0623176 255 255 255
0.0238669 -0.00440436 0.0699477 255 255 255
0.0091169 -0.00199713 0.0607612 255 255 255
0.0217395 -0.000985731 0.0680337 255 255 255
-0.00988256 -0.00549596 0.0475319 255 255 255
0.00941167 0.00167904 0.0583406 255 255 255
-0.00427697 0.00266237 0.0498361 255 255 255
-0.00108112 0.0068376 0.0494811 255 255 255
-0.00688141 -0.00521257 0.0568254 255 255 255
-0.00688141 -0.00521257 0.0568254 255 255 255
0.0185003 -0.00375651 0.0673249 255 255 255
-0.00575474 -0.00493168 0.053265 255 255 255
-0.00527411 -0.00535219 0.053433 255 255 255
-0.00124138 -0.00491011 0.0558228 255 255 255
0.00409234 -0.00188063 0.0609195 255 255 255
0.0228354 -0.00135548 0.0682818 255 255 255
-0.011601 -0.00496184 0.0464228 255 255 255
-0.0013071 0.00621756 0.0495124 255 255 255
-0.00210743 -0.00488951 0.0563546 255 255 255
0.018249 -0.00194555 0.0644677 255 255 255
-0.0148516 -0.00627229 0.0440564 255 255 255
-0.00333787 0.00065608 0.0497111 255 255 255
0.00131586 -0.00386269 0.0607156 255 255 255
-0.0145831 -0.00595029 0.0439551 255 255 255
0.0207667 -0.00271564 0.0703575 255 255 255
-0.0182058 -0.00576994 0.0553694 255 255 255
-0.0139276 -0.00499582 0.05753 255 255 255
-0.00980923 -0.00501173 0.0592398 255 255 255
-0.00801209 -0.0054552 0.0597524 255 255 255
-0.0183734 -0.00471054 0.0536903 255 255 255
-0.0097555 -0.00470109 0.0581637 255 255 255
-0.0179825 -0.00454921 0.0526131 255 255 255
-0.0160005 -0.00451377 0.0537436 255 255 255
-0.00271338 -0.00452735 0.0606785 255 255 255
-0.0148077 -0.00449799 0.0539106 255 255 255
-0.00574714 -0.00575115 0.0577018 255 255 255
