ply
format ascii 1.0
element vertex 1215
property float x
property float y
property float z
property uchar red
property uchar green
property uchar blue
end_header
0.0539684 -0.0593331 0.961834 255 255 255
0.594094 -0.0814638 1.17135 255 255 255
0.0194884 -0.0381991 0.940002 255 255 255
0.467446 -0.0503513 1.1231 255 255 255
-0.371235 -0.0180563 0.973791 255 255 255
-0.0949404 -0.0241346 0.888256 255 255 255
-0.0779519 -0.0276207 0.902837 255 255 255
-0.065624 -0.0268149 0.907613 255 255 255
-0.0445161 -0.025746 0.915966 255 255 255
0.2649 -0.0171107 1.14227 255 255 255
0.488025 -0.0349217 1.1284 255 255 255
0.181326 -0.00459112 1.10829 255 255 255
0.218953 -0.00943524 1.1264 255 255 255
0.390709 -0.00366131 1.08537 255 255 255
0.503406 0.00102984 1.12944 255 255 255
0.512183 0.00221492 1.13143 255 255 255
-0.111837 0.0205017 0.876242 255 255 255
-0.00745858 0.0314929 0.920001 255 255 255
0.327328 0.0235058 1.10042 255 255 255
0.0532072 0.0533856 0.942876 255 255 255
0.0466366 0.0690549 0.934778 255 255 255
0.531237 0.0733336 1.12498 255 255 255
0.554772 0.0770606 1.13302 255 255 255
-0.0330792 0.0846176 0.899514 255 255 255
0.391318 0.114463 1.06231 255 255 255
0.467111 0.099993 1.0957 255 255 255
0.531908 0.102265 1.1195 255 255 255
0.0443738 0.109747 0.920869 255 255 255
0.201743 0.15453 1.08753 255 255 255
0.424745 0.163456 1.06212 255 255 255
0.530563 0.166037 1.10655 255 255 255
0.354864 0.175754 1.06022 255 255 255
0.496123 0.195987 1.08889 255 255 255
0.485696 0.218713 1.07561 255 255 255
0.490923 0.21663 1.0831 255 255 255
0.503268 0.220293 1.08425 255 255 255
0.52273 0.218624 1.0944 255 255 255
0.564379 0.218337 1.11161 255 255 255
0.546091 0.223129 1.0996 255 255 255
-0.082783 0.185331 0.854342 255 255 255
-0.0374951 0.180041 0.876203 255 255 255
0.546326 0.240297 1.09006 255 255 255
0.546326 0.240297 1.09006 255 255 255
-0.0687764 0.197952 0.856096 255 255 255
0.363783 0.247633 0.967251 255 255 255
0.497243 0.25355 1.06784 255 255 255
0.563142 0.271465 1.09215 255 255 255
-0.221484 0.219541 0.870975 255 255 255
-0.013399 0.23057 0.87028 255 255 255
-0.0155021 0.233679 0.869133 255 255 255
0.287956 0.254605 0.911699 255 255 255
0.38809 0.254779 0.976526 255 255 255
0.396638 0.264526 0.930311 255 255 255
0.537904 0.289569 1.07801 255 255 255
0.569299 0.287077 1.09121 255 255 255
-0.160021 0.239304 0.82021 255 255 255
-0.107121 0.229667 0.834679 255 255 255
0.076928 0.240355 0.831546 255 255 255
0.283227 0.256151 0.885977 255 255 255
-0.259911 -0.221579 0.86692 255 255 255
0.0162126 -0.263812 0.985773 255 255 255
-0.11164 -0.231183 0.928808 255 255 255
-0.101251 -0.227049 0.932814 255 255 255
0.0582201 -0.248826 0.999077 255 255 255
0.394517 -0.312278 1.14417 255 255 255
0.451301 -0.317707 1.16811 255 255 255
0.483873 -0.310841 1.17903 255 255 255
0.0873058 -0.238161 1.00891 255 255 255
0.155146 -0.240651 1.02744 255 255 255
0.267152 -0.251291 1.08414 255 255 255
-0.0441977 -0.191823 0.946994 255 255 255
-0.000314391 -0.1925 0.965694 255 255 255
0.0907183 -0.216075 1.0049 255 255 255
0.285864 -0.233925 1.08021 255 255 255
0.576939 -0.257524 1.19985 255 255 255
-0.0215793 -0.170765 0.952457 255 255 255
0.0448485 -0.172028 0.978986 255 255 255
0.149937 -0.196889 1.0269 255 255 255
0.197322 -0.20867 1.04833 255 255 255
0.271722 -0.195378 1.07233 255 255 255
0.395389 -0.220825 1.12726 255 255 255
0.393533 -0.21424 1.12615 255 255 255
0.0763101 -0.151275 0.987982 255 255 255
0.329055 -0.192973 1.08873 255 255 255
0.347565 -0.176872 1.09331 255 255 255
0.495395 -0.200611 1.16237 255 255 255
0.3317 -0.150417 1.09351 255 255 255
0.3317 -0.150417 1.09351 255 255 255
0.367989 -0.154034 1.09706 255 255 255
0.35717 -0.12668 1.09741 255 255 255
0.369743 -0.101819 1.09575 255 255 255
0.472111 -0.123727 1.13977 255 255 255
0.472111 -0.123727 1.13977 255 255 255
0.385196 -0.0604491 1.09605 255 255 255
0.439149 -0.056716 1.1133 255 255 255
0.413991 -0.0221151 1.09025 255 255 255
0.511699 -0.0373689 1.138 255 255 255
0.522208 -0.0314024 1.14165 255 255 255
0.38916 0.008654 1.08459 255 255 255
0.473822 -0.0133591 1.12107 255 255 255
0.0309175 0.0308933 0.935176 255 255 255
0.266884 0.0297534 1.13895 255 255 255
0.293542 0.0156931 1.12165 255 255 255
0.387981 0.0338268 1.07703 255 255 255
0.536692 0.0312686 1.13383 255 255 255
0.748895 0.0710277 1.35807 255 255 255
0.0511696 0.0695115 0.93537 255 255 255
0.167817 0.0842767 1.08856 255 255 255
0.383834 0.0949729 1.06772 255 255 255
0.408397 0.113894 1.06957 255 255 255
-0.112062 0.110075 0.863458 255 255 255
0.044193 0.117038 0.919535 255 255 255
0.26619 0.146667 1.11614 255 255 255
0.551536 0.12988 1.12277 255 255 255
0.440859 0.227625 1.05232 255 255 255
0.473332 0.240157 1.06278 255 255 255
0.551858 0.232153 1.09845 255 255 255
0.550664 0.236425 1.09479 255 255 255
0.557258 0.244454 1.09496 255 255 255
-0.0275836 0.209412 0.869542 255 255 255
0.357026 0.247626 0.964829 255 255 255
-0.245587 0.224522 0.836372 255 255 255
0.100553 0.228403 0.866586 255 255 255
0.442972 0.261675 0.972844 255 255 255
-0.0810439 0.236786 0.844061 255 255 255
-0.0810439 0.236786 0.844061 255 255 255
-0.231356 -0.225616 0.874573 255 255 255
-0.189745 -0.235738 0.898406 255 255 255
-0.172623 -0.241221 0.906191 255 255 255
-0.171964 -0.236286 0.905253 255 255 255
-0.0246664 -0.265551 0.968859 255 255 255
0.204001 -0.295092 1.06567 255 255 255
0.250022 -0.299965 1.08922 255 255 255
-0.265649 -0.18969 0.854736 255 255 255
-0.265649 -0.18969 0.854736 255 255 255
0.183669 -0.233037 1.04043 255 255 255
0.216124 -0.259058 1.05864 255 255 255
0.323113 -0.254223 1.10524 255 255 255
0.285642 -0.239682 1.0812 255 255 255
0.341694 -0.231653 1.1091 255 255 255
-0.061969 -0.146246 0.931302 255 255 255
0.641931 -0.219353 1.22399 255 255 255
0.176189 -0.107536 1.11867 255 255 255
0.463624 -0.0914996 1.12841 255 255 255
0.482789 -0.0910215 1.13802 255 255 255
-0.365023 -0.00696282 0.975124 255 255 255
0.53348 0.00799966 1.13958 255 255 255
0.388876 0.0421452 1.07817 255 255 255
0.533554 0.0655218 1.12806 255 255 255
0.755914 0.0545273 1.3606 255 255 255
0.371856 0.07575 1.07314 255 255 255
0.024207 0.0779324 0.923536 255 255 255
0.0440446 0.089604 0.929054 255 255 255
0.388598 0.11066 1.065 255 255 255
0.398134 0.0941914 1.06635 255 255 255
-0.067214 0.143864 0.875404 255 255 255
-0.067214 0.143864 0.875404 255 255 255
0.499875 0.194604 1.08824 255 255 255
0.547404 0.227442 1.0987 255 255 255
0.547404 0.227442 1.0987 255 255 255
-0.0999324 0.188383 0.845837 255 255 255
-0.0318936 0.183749 0.876859 255 255 255
-0.0318936 0.183749 0.876859 255 255 255
0.0253175 0.201178 0.892268 255 255 255
0.433943 0.223096 1.05205 255 255 255
0.375403 0.239837 1.02335 255 255 255
0.0541271 0.228389 0.848074 255 255 255
-0.195808 0.233051 0.831148 255 255 255
-0.287213 -0.217353 0.849796 255 255 255
-0.265828 -0.231255 0.867831 255 255 255
-0.23162 -0.231891 0.876164 255 255 255
-0.167109 -0.246152 0.90911 255 255 255
-0.0995604 -0.235953 0.934177 255 255 255
0.156856 -0.216438 1.03265 255 255 255
-0.195058 -0.164765 0.877301 255 255 255
0.363084 -0.0731349 1.09893 255 255 255
0.363058 -0.0731259 1.09885 255 255 255
0.367844 -0.0585336 1.09771 255 255 255
0.367844 -0.0585336 1.09771 255 255 255
-0.362487 -0.0234214 0.973638 255 255 255
-0.350731 -0.0201413 0.979264 255 255 255
-0.327938 -0.00921032 0.988585 255 255 255
0.388784 -0.0363874 1.08957 255 255 255
0.533027 -0.0423849 1.14702 255 255 255
0.355047 0.0093966 1.08854 255 255 255
0.371477 0.0360621 1.08114 255 255 255
-0.114683 0.0422583 0.875702 255 255 255
-0.0648238 0.0418055 0.896151 255 255 255
-0.0010709 0.0373583 0.921461 255 255 255
0.0227702 0.0359544 0.928775 255 255 255
0.370817 0.0865902 1.07064 255 255 255
0.546438 0.086488 1.12894 255 255 255
0.0305038 0.0956477 0.923193 255 255 255
0.737381 0.124216 1.3488 255 255 255
0.0363164 0.113626 0.916566 255 255 255
0.532721 0.144097 1.11089 255 255 255
0.53988 0.122264 1.11813 255 255 255
0.738472 0.156513 1.34357 255 255 255
0.323424 0.151154 1.0841 255 255 255
0.412205 0.156274 1.05762 255 255 255
0.737845 0.189943 1.33697 255 255 255
-0.101932 0.149964 0.860193 255 255 255
-0.101932 0.149964 0.860193 255 255 255
0.0199938 0.149264 0.91011 255 255 255
0.376651 0.18863 1.04527 255 255 255
0.164485 0.241568 0.864884 255 255 255
-0.252633 0.228939 0.809053 255 255 255
-0.135901 0.24234 0.829452 255 255 255
0.273367 0.257613 0.882272 255 255 255
-0.23757 -0.228383 0.875742 255 255 255
0.384526 -0.313957 1.13854 255 255 255
-0.224966 -0.193089 0.872688 255 255 255
-0.224966 -0.193089 0.872688 255 255 255
0.169956 -0.197179 1.03698 255 255 255
0.250596 -0.194676 1.07185 255 255 255
0.558307 -0.221007 1.19267 255 255 255
0.455793 -0.173925 1.14428 255 255 255
0.156477 -0.0762581 1.11306 255 255 255
0.524289 -0.0385545 1.14656 255 255 255
0.0453136 0.0101135 0.944511 255 255 255
0.328055 0.0116395 1.09601 255 255 255
-0.239586 0.0472031 1.01022 255 255 255
0.0446779 0.0781533 0.930903 255 255 255
0.531482 0.11075 1.12005 255 255 255
0.383023 0.232603 1.02462 255 255 255
-0.248197 -0.227532 0.872695 255 255 255
0.123035 -0.197515 1.01738 255 255 255
0.583166 -0.240681 1.20427 255 255 255
0.3237 -0.153482 1.09381 255 255 255
0.0160591 -0.108085 0.956721 255 255 255
0.356182 -0.112717 1.09905 255 255 255
-0.0302832 0.119157 0.895049 255 255 255
0.026991 0.186869 0.899906 255 255 255
-0.07757 -0.188555 0.934099 255 255 255
-0.355785 -0.0104857 0.98015 255 255 255
-0.0903717 0.126383 0.87041 255 255 255
-0.121361 0.230886 0.82821 255 255 255
0.582328 -0.126052 1.18737 255 255 255
0.428591 -0.0901935 1.11535 255 255 255
-0.023957 -0.22975 0.962855 255 255 255
-0.0777998 -0.203829 0.939593 255 255 255
0.519578 0.056891 1.12641 255 255 255
-0.098867 -0.32943 0.951618 255 255 255
0.00505223 -0.338579 0.994931 255 255 255
0.0120832 -0.339022 0.998422 255 255 255
0.0463273 -0.355134 1.01417 255 255 255
0.0513472 -0.356526 1.01663 255 255 255
0.197882 -0.385492 1.07686 255 255 255
0.275513 -0.392646 1.11268 255 255 255
0.305459 -0.385051 1.12258 255 255 255
0.305459 -0.385051 1.12258 255 255 255
0.327387 -0.399911 1.13408 255 255 255
0.350271 -0.398889 1.1431 255 255 255
0.377871 -0.413219 1.15637 255 255 255
0.37283 -0.400405 1.15248 255 255 255
0.393334 -0.39892 1.16021 255 255 255
0.412941 -0.400611 1.16811 255 255 255
0.52452 -0.432749 1.21766 255 255 255
0.522888 -0.428591 1.21645 255 255 255
0.577528 -0.428652 1.2379 255 255 255
0.583133 -0.436981 1.23264 255 255 255
-0.117622 -0.312981 0.934824 255 255 255
-0.0586862 -0.326561 0.967069 255 255 255
0.00348618 -0.335927 0.993785 255 255 255
0.0304658 -0.339878 1.00588 255 255 255
0.044106 -0.336843 1.01109 255 255 255
0.076986 -0.336743 1.02343 255 255 255
0.0982835 -0.332296 1.03148 255 255 255
0.117769 -0.337589 1.03963 255 255 255
0.117769 -0.337589 1.03963 255 255 255
0.163124 -0.347295 1.05174 255 255 255
0.166689 -0.344084 1.05631 255 255 255
0.176417 -0.338464 1.06084 255 255 255
0.232303 -0.3463 1.08938 255 255 255
0.273544 -0.346572 1.09367 255 255 255
0.358422 -0.386544 1.14401 255 255 255
0.379787 -0.383566 1.15091 255 255 255
0.399904 -0.389006 1.16034 255 255 255
0.448598 -0.378441 1.17809 255 255 255
0.485991 -0.387019 1.19421 255 255 255
0.534617 -0.385453 1.21397 255 255 255
0.569132 -0.414238 1.23289 255 255 255
0.586198 -0.411087 1.24052 255 255 255
0.597283 -0.407432 1.24692 255 255 255
0.6107 -0.409754 1.25064 255 255 255
0.6107 -0.409754 1.25064 255 255 255
-0.244307 -0.259086 0.878183 255 255 255
-0.166965 -0.280661 0.915559 255 255 255
0.0752378 -0.302865 1.01544 255 255 255
0.197407 -0.32319 1.07325 255 255 255
0.203863 -0.322644 1.07403 255 255 255
0.23533 -0.339701 1.0914 255 255 255
0.256008 -0.347093 1.10387 255 255 255
0.273793 -0.33671 1.09749 255 255 255
0.273793 -0.33671 1.09749 255 255 255
0.279766 -0.336206 1.09926 255 255 255
0.279766 -0.336206 1.09926 255 255 255
0.27203 -0.330811 1.09563 255 255 255
0.274896 -0.32942 1.09771 255 255 255
0.374288 -0.353949 1.14408 255 255 255
0.418546 -0.353637 1.16157 255 255 255
0.410321 -0.343176 1.156 255 255 255
0.430895 -0.349361 1.16539 255 255 255
0.486246 -0.377953 1.19269 255 255 255
0.493738 -0.377377 1.19575 255 255 255
-0.230209 -0.248934 0.882321 255 255 255
-0.161168 -0.267128 0.916472 255 255 255
-0.137171 -0.252158 0.922986 255 255 255
-0.105027 -0.256072 0.936308 255 255 255
-0.0615142 -0.272115 0.955198 255 255 255
-0.0123717 -0.266596 0.974459 255 255 255
0.029065 -0.288634 0.994843 255 255 255
0.0747702 -0.288817 1.01353 255 255 255
0.13271 -0.283261 1.03545 255 255 255
0.187438 -0.299624 1.06312 255 255 255
0.19313 -0.29043 1.06218 255 255 255
0.2418 -0.306623 1.08273 255 255 255
0.275435 -0.298451 1.10148 255 255 255
0.419228 -0.3295 1.15697 255 255 255
0.419229 -0.329468 1.15698 255 255 255
0.410786 -0.325183 1.15283 255 255 255
0.476491 -0.348418 1.18462 255 255 255
0.626414 -0.348958 1.25366 255 255 255
-0.227662 -0.222118 0.878914 255 255 255
-0.114876 -0.250369 0.931907 255 255 255
-0.100566 -0.247066 0.936403 255 255 255
-0.0226449 -0.239099 0.965096 255 255 255
0.0618381 -0.263528 1.00282 255 255 255
0.0639271 -0.260978 1.00337 255 255 255
0.082277 -0.25925 1.01032 255 255 255
0.108355 -0.263641 1.02219 255 255 255
0.175714 -0.275087 1.05179 255 255 255
0.173238 -0.268435 1.05022 255 255 255
0.220689 -0.285471 1.06441 255 255 255
0.221287 -0.280133 1.06477 255 255 255
0.219499 -0.265147 1.0606 255 255 255
0.395288 -0.283852 1.13917 255 255 255
0.399458 -0.283323 1.14077 255 255 255
0.42448 -0.290946 1.15295 255 255 255
0.495 -0.3179 1.18425 255 255 255
0.477666 -0.292002 1.17468 255 255 255
0.507203 -0.300305 1.18749 255 255 255
-0.109987 -0.218241 0.926629 255 255 255
-0.0982701 -0.225595 0.932763 255 255 255
-0.0317483 -0.222691 0.95866 255 255 255
0.127718 -0.23939 1.02478 255 255 255
0.173412 -0.25846 1.04727 255 255 255
0.177405 -0.245349 1.04612 255 255 255
0.181025 -0.239727 1.04492 255 255 255
0.254546 -0.259464 1.07719 255 255 255
0.254546 -0.259464 1.07719 255 255 255
0.273975 -0.266108 1.0905 255 255 255
0.271947 -0.251192 1.08444 255 255 255
0.271947 -0.251192 1.08444 255 255 255
0.380683 -0.267618 1.13037 255 255 255
0.393612 -0.278556 1.13832 255 255 255
0.378445 -0.264377 1.12811 255 255 255
0.437318 -0.261363 1.152 255 255 255
0.501553 -0.286505 1.18164 255 255 255
0.519401 -0.290849 1.19016 255 255 255
-0.219036 -0.177788 0.875085 255 255 255
-0.200732 -0.190898 0.88001 255 255 255
-0.0504715 -0.195469 0.945795 255 255 255
0.000268421 -0.20493 0.967213 255 255 255
0.117717 -0.22864 1.01866 255 255 255
0.121835 -0.207475 1.01103 255 255 255
0.121835 -0.207475 1.01103 255 255 255
0.123304 -0.215709 1.00892 255 255 255
0.141274 -0.222636 1.01742 255 255 255
0.138822 -0.218607 1.01924 255 255 255
0.143466 -0.220894 1.02193 255 255 255
0.146812 -0.219995 1.02394 255 255 255
0.128717 -0.21358 1.01429 255 255 255
0.14842 -0.222682 1.02375 255 255 255
0.152376 -0.221552 1.02668 255 255 255
0.186159 -0.229947 1.04022 255 255 255
0.202685 -0.232273 1.04736 255 255 255
0.247787 -0.230022 1.06375 255 255 255
0.249425 -0.220851 1.06903 255 255 255
0.265738 -0.241406 1.07879 255 255 255
0.26986 -0.240612 1.08152 255 255 255
0.325191 -0.232828 1.10216 255 255 255
0.449492 -0.25947 1.15538 255 255 255
0.449492 -0.25947 1.15538 255 255 255
0.453094 -0.237566 1.1537 255 255 255
0.471465 -0.257183 1.16365 255 255 255
0.4708 -0.245498 1.1618 255 255 255
0.557757 -0.251419 1.19689 255 255 255
0.566909 -0.261694 1.19587 255 255 255
0.564559 -0.254188 1.19657 255 255 255
-0.198343 -0.166703 0.875243 255 255 255
-0.0138469 -0.173625 0.956275 255 255 255
-0.0091699 -0.172575 0.956674 255 255 255
0.00567004 -0.187399 0.966537 255 255 255
0.0290698 -0.180037 0.974169 255 255 255
0.0895802 -0.187672 0.990605 255 255 255
0.1049 -0.198131 1.00168 255 255 255
0.100586 -0.179293 1.00228 255 255 255
0.112476 -0.179975 1.00861 255 255 255
0.146092 -0.197202 1.02586 255 255 255
0.177729 -0.208249 1.03966 255 255 255
0.200018 -0.203141 1.05123 255 255 255
0.211357 -0.212151 1.05299 255 255 255
0.217191 -0.211768 1.05506 255 255 255
0.248956 -0.213596 1.0681 255 255 255
0.265524 -0.208957 1.07369 255 255 255
0.269748 -0.208032 1.07485 255 255 255
0.393667 -0.206587 1.12331 255 255 255
0.418546 -0.205284 1.13425 255 255 255
0.502868 -0.217482 1.16963 255 255 255
0.502865 -0.217421 1.16957 255 255 255
0.503759 -0.210117 1.16814 255 255 255
0.600205 -0.236623 1.21186 255 255 255
0.661108 -0.224163 1.23235 255 255 255
-0.202086 -0.153042 0.877389 255 255 255
-0.12516 -0.153797 0.9079 255 255 255
-0.0710856 -0.147826 0.928228 255 255 255
-0.0465897 -0.160226 0.940405 255 255 255
0.0678391 -0.171213 0.978819 255 255 255
0.0909313 -0.166311 0.99619 255 255 255
0.0930671 -0.160683 0.997303 255 255 255
0.105304 -0.175559 1.00315 255 255 255
0.101929 -0.16701 1.00195 255 255 255
0.297687 -0.191586 1.08363 255 255 255
0.319509 -0.17494 1.08733 255 255 255
0.384191 -0.189632 1.11712 255 255 255
0.371601 -0.175459 1.10924 255 255 255
0.437445 -0.202995 1.13922 255 255 255
0.4528 -0.204817 1.14771 255 255 255
0.470662 -0.186172 1.15146 255 255 255
0.593916 -0.197181 1.20305 255 255 255
-0.122121 -0.124003 0.903727 255 255 255
-0.083682 -0.132989 0.920167 255 255 255
-0.0384429 -0.126325 0.937152 255 255 255
0.0455912 -0.129388 0.961832 255 255 255
0.0605914 -0.146257 0.974946 255 255 255
0.0702572 -0.133815 0.982469 255 255 255
0.0702572 -0.133815 0.982469 255 255 255
0.344613 -0.167864 1.09547 255 255 255
0.343116 -0.165099 1.0956 255 255 255
0.341016 -0.162537 1.09381 255 255 255
0.33974 -0.157715 1.09395 255 255 255
0.342703 -0.15566 1.09419 255 255 255
0.417712 -0.163407 1.12511 255 255 255
0.396811 -0.160458 1.11663 255 255 255
0.404838 -0.14867 1.11716 255 255 255
0.414792 -0.150286 1.12153 255 255 255
0.681545 -0.188519 1.23393 255 255 255
0.685361 -0.187867 1.23324 255 255 255
0.687776 -0.189592 1.23223 255 255 255
0.681717 -0.178457 1.2316 255 255 255
0.661735 -0.169155 1.21918 255 255 255
-0.0365003 -0.114471 0.936244 255 255 255
0.306399 -0.137492 1.09734 255 255 255
0.505567 -0.142162 1.15594 255 255 255
0.513388 -0.141246 1.15804 255 255 255
0.528962 -0.15179 1.16687 255 255 255
0.619806 -0.134704 1.20116 255 255 255
0.678804 -0.154395 1.22403 255 255 255
0.0190519 -0.083173 0.952028 255 255 255
0.0432736 -0.0864022 0.961675 255 255 255
-0.135492 -0.0667883 0.887958 255 255 255
0.387466 -0.0694724 1.09528 255 255 255
0.429309 -0.0829092 1.11418 255 255 255
0.458953 -0.0837321 1.12686 255 255 255
0.519222 -0.0779092 1.14957 255 255 255
0.62994 -0.0931871 1.1948 255 255 255
0.632571 -0.0882138 1.1958 255 255 255
-0.130285 -0.0534339 0.887256 255 255 255
-0.128422 -0.0551521 0.888481 255 255 255
-0.131328 -0.0379599 0.884207 255 255 255
0.002684 -0.040858 0.93761 255 255 255
0.0077226 -0.0399142 0.939531 255 255 255
0.110771 -0.0491857 1.08787 255 255 255
0.386857 -0.063889 1.09422 255 255 255
0.391651 -0.0515334 1.09337 255 255 255
0.431452 -0.0596162 1.11125 255 255 255
0.615444 -0.069316 1.1863 255 255 255
-0.313234 -0.0313967 0.990436 255 255 255
-0.110416 -0.0349644 0.88441 255 255 255
-0.108756 -0.032954 0.884925 255 255 255
0.0398021 -0.0221289 0.94284 255 255 255
0.0506679 -0.0327876 0.956447 255 255 255
0.0536276 -0.0341591 0.959779 255 255 255
0.0603161 -0.0171248 0.962179 255 255 255
0.118553 -0.0357282 1.08941 255 255 255
0.179791 -0.0292156 1.11107 255 255 255
0.181353 -0.0255543 1.11083 255 255 255
0.396686 -0.043335 1.09421 255 255 255
0.397695 -0.0249609 1.09132 255 255 255
0.467951 -0.038691 1.12173 255 255 255
0.493311 -0.0223289 1.12765 255 255 255
0.59344 -0.0355808 1.17072 255 255 255
0.035023 0.00400648 0.942212 255 255 255
0.0551341 -0.00495595 0.951595 255 255 255
0.16819 -0.0177893 1.10494 255 255 255
0.172266 -0.0171075 1.10665 255 255 255
0.176074 -0.016951 1.10804 255 255 255
0.394673 -0.00781745 1.08705 255 255 255
0.466407 -0.0179351 1.11629 255 255 255
0.449562 -0.00443052 1.10834 255 255 255
0.477443 -0.0115568 1.11959 255 255 255
0.490423 -0.0175995 1.12614 255 255 255
0.474715 -0.00469761 1.11851 255 255 255
0.540929 -0.0102038 1.14538 255 255 255
0.545061 -0.0084442 1.14626 255 255 255
0.541972 0.00429618 1.14305 255 255 255
0.576522 -0.0076662 1.15839 255 255 255
-0.064328 0.00813179 0.901714 255 255 255
0.0302336 0.0155334 0.938102 255 255 255
0.0302336 0.0155334 0.938102 255 255 255
0.035019 0.0118867 0.940355 255 255 255
0.055777 0.00761152 0.951286 255 255 255
0.0554354 0.0117913 0.948987 255 255 255
0.0507713 0.0256946 0.943745 255 255 255
0.352136 0.0254719 1.08959 255 255 255
0.570871 0.0326793 1.1485 255 255 255
0.578707 0.0281949 1.15276 255 255 255
-0.0474626 0.0271504 0.904883 255 255 255
-0.0470435 0.0463131 0.901378 255 255 255
0.394964 0.0432447 1.07745 255 255 255
0.525105 0.0334124 1.13093 255 255 255
0.723659 0.0647123 1.36086 255 255 255
-0.0399364 0.0619079 0.900953 255 255 255
-0.00408751 0.0646445 0.914812 255 255 255
0.0370762 0.0626794 0.926286 255 255 255
0.0551204 0.0693619 0.941513 255 255 255
0.395222 0.0606025 1.07441 255 255 255
0.484557 0.0799087 1.10553 255 255 255
0.717198 0.0844455 1.34951 255 255 255
0.735356 0.0852835 1.35247 255 255 255
0.736258 0.0911765 1.35444 255 255 255
-0.295281 0.0798624 0.981248 255 255 255
-0.0741806 0.0816657 0.883706 255 255 255
0.00173396 0.086362 0.912989 255 255 255
0.0505375 0.0771267 0.93491 255 255 255
0.393803 0.103395 1.06467 255 255 255
0.47401 0.101112 1.09745 255 255 255
0.549517 0.0936574 1.12908 255 255 255
0.548024 0.105703 1.12553 255 255 255
0.548024 0.105703 1.12553 255 255 255
0.564954 0.0950141 1.13451 255 255 255
0.558774 0.0981584 1.13197 255 255 255
-0.0781162 0.0880334 0.881458 255 255 255
-0.0111341 0.0984059 0.905786 255 255 255
0.0505301 0.0936412 0.931528 255 255 255
0.0512915 0.0998017 0.929795 255 255 255
0.394041 0.120321 1.06167 255 255 255
0.391812 0.124503 1.06102 255 255 255
0.523433 0.123048 1.11283 255 255 255
0.027401 0.121056 0.911745 255 255 255
0.047467 0.119109 0.923197 255 255 255
0.167961 0.154563 1.07421 255 255 255
0.406057 0.138102 1.059 255 255 255
0.445484 0.131783 1.08005 255 255 255
0.49169 0.151064 1.0953 255 255 255
0.697927 0.182058 1.35955 255 255 255
-0.0522648 0.14354 0.880719 255 255 255
-0.0261261 0.136568 0.892653 255 255 255
0.209096 0.158739 1.08901 255 255 255
0.215855 0.168811 1.08972 255 255 255
0.405409 0.159135 1.05454 255 255 255
0.528944 0.184219 1.10362 255 255 255
0.534445 0.192688 1.10425 255 255 255
0.548548 0.192745 1.10942 255 255 255
0.724733 0.233314 1.32783 255 255 255
0.260674 0.222506 1.10282 255 255 255
0.333317 0.209786 1.05822 255 255 255
0.353061 0.20533 1.04683 255 255 255
0.375589 0.211093 1.03297 255 255 255
0.478595 0.227198 1.06949 255 255 255
0.483599 0.227411 1.0705 255 255 255
0.535251 0.214147 1.1003 255 255 255
0.549756 0.214572 1.10539 255 255 255
0.715429 0.258617 1.31727 255 255 255
0.714393 0.260957 1.31191 255 255 255
-0.0974617 0.182028 0.850593 255 255 255
-0.0903065 0.199118 0.846577 255 255 255
-0.0636124 0.198211 0.856492 255 255 255
0.0454068 0.194974 0.903447 255 255 255
0.0289216 0.204708 0.892344 255 255 255
0.0449874 0.205105 0.898709 255 255 255
0.043026 0.207185 0.897763 255 255 255
0.046648 0.208439 0.898155 255 255 255
0.371569 0.232946 1.02465 255 255 255
0.436217 0.231349 1.04893 255 255 255
0.415651 0.238452 1.03954 255 255 255
0.435178 0.236722 1.04689 255 255 255
0.442743 0.245826 1.049 255 255 255
0.487203 0.235477 1.06928 255 255 255
0.487235 0.235554 1.06969 255 255 255
0.487452 0.251071 1.06522 255 255 255
0.497689 0.246824 1.07129 255 255 255
0.520637 0.232574 1.08242 255 255 255
0.506671 0.237034 1.07589 255 255 255
0.52603 0.239004 1.08353 255 255 255
0.562836 0.241678 1.09666 255 255 255
0.549049 0.253768 1.0899 255 255 255
0.552838 0.256317 1.09066 255 255 255
-0.0989116 0.210267 0.841145 255 255 255
-0.0999207 0.214979 0.839834 255 255 255
-0.0781748 0.211786 0.848995 255 255 255
-0.0414378 0.208624 0.863135 255 255 255
-0.0400817 0.222169 0.862036 255 255 255
0.118621 0.228815 0.897078 255 255 255
0.178023 0.232556 0.919102 255 255 255
0.428475 0.249998 1.04304 255 255 255
0.471175 0.260256 1.05766 255 255 255
0.465022 0.266145 1.0537 255 255 255
0.465022 0.266145 1.0537 255 255 255
0.474777 0.255667 1.06175 255 255 255
0.492331 0.265759 1.06406 255 255 255
0.505701 0.254863 1.07235 255 255 255
0.504114 0.257252 1.07141 255 255 255
0.515137 0.257702 1.07584 255 255 255
0.510102 0.267637 1.07292 255 255 255
0.520063 0.269578 1.07503 255 255 255
0.520063 0.269578 1.07503 255 255 255
0.544207 0.26852 1.08515 255 255 255
0.550786 0.258938 1.08997 255 255 255
0.538798 0.272151 1.08235 255 255 255
0.538798 0.272151 1.08235 255 255 255
0.545781 0.279075 1.08361 255 255 255
0.557733 0.275909 1.08922 255 255 255
0.557733 0.275909 1.08922 255 255 255
0.56978 0.280279 1.09237 255 255 255
0.569085 0.283242 1.09156 255 255 255
-0.243195 0.226557 0.812566 255 255 255
-0.109695 0.22248 0.835156 255 255 255
-0.10963 0.227523 0.833055 255 255 255
-0.084042 0.219006 0.845055 255 255 255
-0.0878363 0.230853 0.841354 255 255 255
-0.0544768 0.236744 0.853739 255 255 255
0.321509 0.250201 0.949975 255 255 255
0.319556 0.252186 0.948391 255 255 255
0.330869 0.25958 0.927524 255 255 255
0.396631 0.263595 0.953361 255 255 255
0.513468 0.28474 1.06988 255 255 255
0.522041 0.279804 1.07375 255 255 255
0.518449 0.286168 1.07233 255 255 255
0.515953 0.290494 1.07054 255 255 255
0.524431 0.288523 1.07429 255 255 255
0.542307 0.284563 1.08211 255 255 255
0.551049 0.285418 1.08526 255 255 255
0.559266 0.284816 1.08821 255 255 255
0.556271 0.286742 1.08683 255 255 255
0.549415 0.290317 1.08293 255 255 255
0.536721 0.293285 1.07709 255 255 255
-0.113666 0.238403 0.829945 255 255 255
-0.0541257 0.248148 0.852154 255 255 255
-0.0231632 0.244489 0.865213 255 255 255
0.0992469 0.246196 0.814392 255 255 255
0.132468 0.24572 0.851705 255 255 255
0.205629 0.25097 0.879608 255 255 255
0.198969 0.254041 0.853203 255 255 255
0.238463 0.252665 0.86896 255 255 255
0.258688 0.255533 0.900089 255 255 255
0.0620002 0.246437 0.800035 255 255 255
0.0995682 0.248962 0.814226 255 255 255
-0.0225572 -0.337616 0.98395 255 255 255
0.0291472 -0.35405 1.0074 255 255 255
0.243135 -0.386888 1.09477 255 255 255
0.292343 -0.394177 1.11984 255 255 255
0.29466 -0.390414 1.11969 255 255 255
0.313584 -0.38321 1.1257 255 255 255
0.323464 -0.400782 1.13297 255 255 255
0.361439 -0.397677 1.14683 255 255 255
0.416219 -0.41515 1.17212 255 255 255
0.425697 -0.417454 1.17487 255 255 255
0.433717 -0.413409 1.17826 255 255 255
0.612421 -0.427139 1.25223 255 255 255
0.61539 -0.434729 1.24541 255 255 255
-0.197049 -0.288969 0.905645 255 255 255
-0.154364 -0.308348 0.923603 255 255 255
-0.130639 -0.314721 0.929428 255 255 255
-0.129986 -0.306298 0.931806 255 255 255
-0.118786 -0.30609 0.937909 255 255 255
-0.107569 -0.29885 0.941663 255 255 255
-0.0540047 -0.32633 0.969164 255 255 255
-0.0595855 -0.315495 0.964995 255 255 255
0.0215638 -0.323776 0.99982 255 255 255
0.052008 -0.335022 1.01279 255 255 255
0.0358896 -0.322054 1.00369 255 255 255
0.0549179 -0.332801 1.01384 255 255 255
0.116911 -0.348597 1.04109 255 255 255
0.175804 -0.349482 1.05629 255 255 255
0.171938 -0.343749 1.05835 255 255 255
0.171938 -0.343749 1.05835 255 255 255
0.204724 -0.350714 1.08306 255 255 255
0.208106 -0.343629 1.08076 255 255 255
0.220853 -0.35103 1.08037 255 255 255
0.222225 -0.342434 1.07843 255 255 255
0.26104 -0.370741 1.09701 255 255 255
0.265425 -0.35201 1.09469 255 255 255
0.304331 -0.360432 1.11767 255 255 255
0.411208 -0.383433 1.16365 255 255 255
0.42778 -0.390754 1.17247 255 255 255
0.507215 -0.406695 1.20747 255 255 255
0.543584 -0.393627 1.21772 255 255 255
0.576512 -0.417782 1.23551 255 255 255
0.580548 -0.414306 1.2393 255 255 255
0.580548 -0.414306 1.2393 255 255 255
0.587759 -0.41701 1.24012 255 255 255
0.591906 -0.413488 1.24341 255 255 255
0.612069 -0.418493 1.24819 255 255 255
0.635231 -0.413717 1.25828 255 255 255
0.670588 -0.41107 1.27121 255 255 255
-0.205913 -0.263687 0.889869 255 255 255
-0.10354 -0.279829 0.942525 255 255 255
-0.019665 -0.309615 0.979393 255 255 255
0.0103168 -0.305296 0.990696 255 255 255
0.00779305 -0.294101 0.987975 255 255 255
0.0212721 -0.301407 0.994 255 255 255
0.0438568 -0.302137 1.00317 255 255 255
0.0796312 -0.316364 1.02084 255 255 255
0.098962 -0.318725 1.02895 255 255 255
0.267685 -0.334163 1.09662 255 255 255
0.285624 -0.3317 1.0994 255 255 255
0.352028 -0.358341 1.13677 255 255 255
0.413192 -0.355295 1.16013 255 255 255
0.425253 -0.353851 1.1644 255 255 255
0.510384 -0.376572 1.20129 255 255 255
-0.244664 -0.251418 0.878498 255 255 255
-0.229312 -0.247028 0.885998 255 255 255
-0.161279 -0.260749 0.915464 255 255 255
-0.0100867 -0.28172 0.978303 255 255 255
-0.000713902 -0.279704 0.981854 255 255 255
-0.000713902 -0.279704 0.981854 255 255 255
0.0222886 -0.288456 0.991717 255 255 255
0.0330323 -0.288267 0.996643 255 255 255
0.0784342 -0.29039 1.01421 255 255 255
0.08582 -0.290116 1.01818 255 255 255
0.130147 -0.302492 1.0383 255 255 255
0.243318 -0.301049 1.08262 255 255 255
0.243318 -0.301049 1.08262 255 255 255
0.426385 -0.338999 1.16123 255 255 255
0.426385 -0.338999 1.16123 255 255 255
0.413655 -0.321308 1.15258 255 255 255
0.447453 -0.325437 1.16759 255 255 255
-0.22461 -0.226274 0.879504 255 255 255
-0.196483 -0.234657 0.893927 255 255 255
0.188329 -0.261793 1.05168 255 255 255
0.270413 -0.293504 1.09396 255 255 255
0.314348 -0.295455 1.10936 255 255 255
0.391088 -0.307963 1.14196 255 255 255
0.399788 -0.307574 1.14454 255 255 255
0.399788 -0.307574 1.14454 255 255 255
0.411265 -0.285187 1.14615 255 255 255
-0.217125 -0.198213 0.879769 255 255 255
-0.107081 -0.226747 0.928711 255 255 255
0.166537 -0.238986 1.03883 255 255 255
0.179364 -0.256497 1.04855 255 255 255
0.179364 -0.256497 1.04855 255 255 255
0.188648 -0.240669 1.04677 255 255 255
0.224212 -0.250894 1.05911 255 255 255
0.205565 -0.238046 1.05102 255 255 255
0.251551 -0.262349 1.07769 255 255 255
0.289181 -0.265465 1.08529 255 255 255
0.366308 -0.26835 1.12471 255 255 255
0.374591 -0.268032 1.1283 255 255 255
0.497416 -0.270373 1.17869 255 255 255
-0.228064 -0.187727 0.870441 255 255 255
-0.228064 -0.187727 0.870441 255 255 255
-0.088986 -0.18929 0.929472 255 255 255
0.0674055 -0.211796 0.994787 255 255 255
0.100191 -0.214836 1.00791 255 255 255
0.158819 -0.226265 1.02895 255 255 255
0.153531 -0.224529 1.02648 255 255 255
0.160993 -0.230006 1.0282 255 255 255
0.293465 -0.224014 1.07855 255 255 255
0.466864 -0.257427 1.16231 255 255 255
0.543519 -0.264701 1.1936 255 255 255
0.566553 -0.247298 1.19955 255 255 255
-0.28251 -0.162675 0.847092 255 255 255
-0.0922131 -0.177837 0.92575 255 255 255
0.142306 -0.203765 1.0239 255 255 255
0.163158 -0.207918 1.03349 255 255 255
0.171338 -0.203734 1.03539 255 255 255
0.226777 -0.209665 1.05848 255 255 255
0.333337 -0.209847 1.10036 255 255 255
0.570781 -0.233353 1.19973 255 255 255
0.0774091 -0.16178 0.989843 255 255 255
0.123469 -0.176787 1.01642 255 255 255
0.341892 -0.17833 1.09399 255 255 255
0.342496 -0.17397 1.09498 255 255 255
0.465721 -0.203719 1.1521 255 255 255
0.473144 -0.196699 1.15398 255 255 255
0.504161 -0.201994 1.1667 255 255 255
0.583244 -0.19659 1.19807 255 255 255
-0.035949 -0.12655 0.938522 255 255 255
0.0317209 -0.134652 0.966938 255 255 255
0.0712285 -0.140444 0.983245 255 255 255
0.0906979 -0.154199 0.99476 255 255 255
0.356795 -0.16777 1.09597 255 255 255
0.336565 -0.14938 1.09341 255 255 255
0.649871 -0.18678 1.21358 255 255 255
0.63382 -0.167693 1.21086 255 255 255
-0.0743534 -0.108545 0.919367 255 255 255
-0.0370873 -0.109346 0.934914 255 255 255
-0.0370873 -0.109346 0.934914 255 255 255
0.0524807 -0.127648 0.970828 255 255 255
0.0651498 -0.110746 0.976505 255 255 255
0.0642671 -0.106493 0.974382 255 255 255
0.378763 -0.138416 1.09855 255 255 255
0.561012 -0.138355 1.17638 255 255 255
0.662843 -0.147202 1.21519 255 255 255
0.662768 -0.139898 1.21333 255 255 255
-0.143067 -0.0873954 0.888646 255 255 255
0.0133249 -0.0873899 0.951004 255 255 255
0.0597587 -0.0937518 0.970927 255 255 255
0.059137 -0.0898905 0.969715 255 255 255
0.0850637 -0.106638 1.00383 255 255 255
0.332939 -0.109105 1.10369 255 255 255
0.338578 -0.0994722 1.10342 255 255 255
0.594757 -0.129813 1.18758 255 255 255
0.640439 -0.111334 1.19621 255 255 255
0.668148 -0.120503 1.21197 255 255 255
0.672342 -0.124089 1.21451 255 255 255
0.658784 -0.109981 1.2039 255 255 255
-0.0163423 -0.0777251 0.937572 255 255 255
0.0558922 -0.0763591 0.965959 255 255 255
0.236301 -0.0934809 1.13734 255 255 255
0.434159 -0.0819367 1.11583 255 255 255
0.538057 -0.0837142 1.15841 255 255 255
0.610494 -0.0915002 1.17994 255 255 255
0.648763 -0.0891749 1.2018 255 255 255
-0.128699 -0.0385326 0.884983 255 255 255
0.0364882 -0.0381088 0.946883 255 255 255
0.0537562 -0.0419581 0.958402 255 255 255
0.162845 -0.0672455 1.11219 255 255 255
0.167475 -0.0644587 1.11647 255 255 255
0.36083 -0.068955 1.09946 255 255 255
0.430501 -0.0516564 1.10948 255 255 255
-0.128337 -0.0277171 0.882644 255 255 255
0.00494144 -0.0191994 0.934334 255 255 255
0.0396567 -0.0179526 0.942362 255 255 255
0.416609 -0.0306924 1.09109 255 255 255
0.470344 -0.041041 1.12185 255 255 255
0.481367 -0.0362998 1.12651 255 255 255
0.152353 -0.0185618 1.09862 255 255 255
0.417714 -0.0146241 1.08766 255 255 255
0.417469 -0.0112996 1.09035 255 255 255
0.493428 -0.0155377 1.12658 255 255 255
0.559713 0.00179743 1.14298 255 255 255
0.053565 0.00907011 0.949053 255 255 255
0.0531848 0.0252037 0.945769 255 255 255
0.376137 0.0261696 1.08536 255 255 255
-0.0353927 0.0290386 0.909615 255 255 255
-0.0250682 0.0299974 0.912914 255 255 255
0.492498 0.0338883 1.11834 255 255 255
0.533983 0.0345458 1.13333 255 255 255
0.751704 0.042614 1.36062 255 255 255
0.736464 0.070168 1.35818 255 255 255
0.0380653 0.0655969 0.926416 255 255 255
-0.0998727 0.0726921 0.875543 255 255 255
0.0569268 0.073041 0.942065 255 255 255
0.0532289 0.0765347 0.936194 255 255 255
0.467287 0.0938492 1.09615 255 255 255
0.467084 0.0999374 1.09553 255 255 255
0.551446 0.100581 1.12812 255 255 255
0.554699 0.103699 1.12852 255 255 255
0.0278586 0.100301 0.91947 255 255 255
0.0513461 0.104305 0.92992 255 255 255
0.388358 0.12056 1.06069 255 255 255
0.408529 0.119498 1.06905 255 255 255
0.542688 0.115694 1.12134 255 255 255
-0.076324 0.113965 0.877033 255 255 255
0.0426378 0.124815 0.917291 255 255 255
0.419964 0.139543 1.06328 255 255 255
0.39879 0.141118 1.05465 255 255 255
0.420185 0.160827 1.05995 255 255 255
0.496216 0.182464 1.09223 255 255 255
0.539659 0.180409 1.10858 255 255 255
0.293023 0.184907 1.08534 255 255 255
0.337651 0.183832 1.0644 255 255 255
0.343333 0.183691 1.06411 255 255 255
0.541243 0.190663 1.10709 255 255 255
0.555735 0.195449 1.1112 255 255 255
0.0263704 0.182602 0.904621 255 255 255
0.141763 0.212637 1.05423 255 255 255
0.460579 0.216571 1.04938 255 255 255
0.533095 0.225161 1.09176 255 255 255
0.554056 0.224035 1.10241 255 255 255
0.542004 0.231798 1.09303 255 255 255
-0.251192 0.196468 0.912283 255 255 255
-0.0591344 0.196646 0.85925 255 255 255
-0.00719324 0.202452 0.877876 255 255 255
0.0175473 0.19268 0.893686 255 255 255
0.0280453 0.193697 0.89599 255 255 255
0.0280453 0.193697 0.89599 255 255 255
0.0479522 0.206948 0.900463 255 255 255
0.403947 0.231204 1.03681 255 255 255
0.406287 0.240311 1.03564 255 255 255
0.406287 0.240311 1.03564 255 255 255
0.418494 0.236109 1.04052 255 255 255
0.506284 0.251076 1.07277 255 255 255
0.557288 0.252285 1.09273 255 255 255
-0.111725 0.19798 0.838392 255 255 255
-0.109028 0.207089 0.83787 255 255 255
-0.072608 0.20467 0.853019 255 255 255
-0.0683981 0.219556 0.851849 255 255 255
0.0209583 0.219477 0.88781 255 255 255
0.124981 0.22293 0.90137 255 255 255
0.122343 0.228981 0.898496 255 255 255
0.348472 0.246159 0.961808 255 255 255
0.433399 0.252415 1.04479 255 255 255
0.435975 0.249962 1.04493 255 255 255
0.469976 0.271743 1.0548 255 255 255
0.485049 0.252945 1.0641 255 255 255
0.474435 0.258472 1.05909 255 255 255
0.516832 0.26188 1.0758 255 255 255
0.524457 0.269027 1.07807 255 255 255
0.559346 0.273292 1.09076 255 255 255
0.613949 0.295793 1.14021 255 255 255
-0.0961026 0.220592 0.840154 255 255 255
-0.0975869 0.222878 0.839573 255 255 255
-0.102471 0.228713 0.83593 255 255 255
-0.040249 0.236279 0.859101 255 255 255
1.47855e-05 0.245223 0.873886 255 255 255
0.0160422 0.2312 0.882452 255 255 255
0.0160556 0.231181 0.88242 255 255 255
0.0189571 0.231967 0.882881 255 255 255
0.21814 0.244801 0.910688 255 255 255
0.272351 0.248544 0.930785 255 255 255
0.506256 0.283431 1.06687 255 255 255
0.538642 0.282835 1.07952 255 255 255
0.540132 0.28654 1.08025 255 255 255
-0.0727051 0.246629 0.845046 255 255 255
-0.0546661 0.245541 0.852951 255 255 255
0.199331 0.250488 0.853823 255 255 255
0.208671 0.251261 0.881622 255 255 255
-0.22273 -0.313715 0.897929 255 255 255
-0.22273 -0.313715 0.897929 255 255 255
-0.110042 -0.325749 0.946713 255 255 255
0.151258 -0.369803 1.05859 255 255 255
0.166451 -0.376964 1.06711 255 255 255
0.254493 -0.380851 1.09552 255 255 255
0.264093 -0.381914 1.09806 255 255 255
0.282246 -0.385948 1.11479 255 255 255
0.327603 -0.394428 1.13267 255 255 255
0.327603 -0.394428 1.13267 255 255 255
0.401613 -0.399412 1.16342 255 255 255
0.519332 -0.414367 1.21438 255 255 255
-0.141083 -0.306934 0.927354 255 255 255
-0.072552 -0.313179 0.958485 255 255 255
-0.0207667 -0.326227 0.981677 255 255 255
-0.0164749 -0.328573 0.984959 255 255 255
-0.000424527 -0.329957 0.990857 255 255 255
0.217334 -0.34586 1.07893 255 255 255
0.217334 -0.34586 1.07893 255 255 255
0.31185 -0.377525 1.12317 255 255 255
0.312536 -0.359743 1.12093 255 255 255
0.432989 -0.390877 1.174 255 255 255
0.434615 -0.384717 1.17344 255 255 255
0.50828 -0.385137 1.20217 255 255 255
0.539414 -0.389527 1.21643 255 255 255
0.611232 -0.414582 1.24878 255 255 255
0.62321 -0.413592 1.25301 255 255 255
-0.191895 -0.285033 0.907022 255 255 255
-0.198604 -0.263055 0.895828 255 255 255
0.122618 -0.309819 1.03732 255 255 255
0.119867 -0.304124 1.03449 255 255 255
0.119867 -0.304124 1.03449 255 255 255
0.154933 -0.3263 1.04399 255 255 255
0.222146 -0.327351 1.07917 255 255 255
0.222146 -0.327351 1.07917 255 255 255
0.269236 -0.340029 1.09373 255 255 255
0.322279 -0.355513 1.12464 255 255 255
0.319104 -0.350552 1.12136 255 255 255
0.345465 -0.34638 1.13138 255 255 255
0.368966 -0.350882 1.14139 255 255 255
0.404883 -0.352073 1.15549 255 255 255
-0.237734 -0.257898 0.881776 255 255 255
-0.237734 -0.257898 0.881776 255 255 255
0.00973483 -0.289193 0.986815 255 255 255
0.125478 -0.303575 1.03705 255 255 255
0.128168 -0.299284 1.03817 255 255 255
0.136245 -0.298993 1.04245 255 255 255
0.155282 -0.281881 1.03568 255 255 255
0.48886 -0.318658 1.18247 255 255 255
0.523227 -0.313992 1.19432 255 255 255
-0.185029 -0.206544 0.894973 255 255 255
-0.110368 -0.215003 0.925487 255 255 255
0.262919 -0.26639 1.08449 255 255 255
0.604478 -0.283322 1.2506 255 255 255
0.604478 -0.283322 1.2506 255 255 255
-0.239411 -0.183462 0.863252 255 255 255
-0.204279 -0.184559 0.876505 255 255 255
-0.183113 -0.185957 0.891478 255 255 255
0.0384337 -0.219876 0.9857 255 255 255
0.192565 -0.232592 1.04295 255 255 255
0.267931 -0.235609 1.07904 255 255 255
0.267931 -0.235609 1.07904 255 255 255
0.267862 -0.22394 1.07085 255 255 255
0.670539 -0.250053 1.23577 255 255 255
-0.000253527 -0.192436 0.965342 255 255 255
0.230134 -0.208112 1.06148 255 255 255
0.228806 -0.202896 1.0621 255 255 255
0.305145 -0.209197 1.08249 255 255 255
0.384165 -0.213519 1.12183 255 255 255
0.55416 -0.230611 1.19228 255 255 255
0.681264 -0.237574 1.24251 255 255 255
-0.0730442 -0.161425 0.929893 255 255 255
0.0967658 -0.160212 0.999353 255 255 255
0.0967658 -0.160212 0.999353 255 255 255
0.33826 -0.185483 1.09164 255 255 255
0.343582 -0.180762 1.0914 255 255 255
0.352414 -0.172352 1.09438 255 255 255
0.452016 -0.201067 1.14718 255 255 255
0.546552 -0.199055 1.18284 255 255 255
0.662204 -0.220113 1.23288 255 255 255
0.666567 -0.215701 1.23168 255 255 255
0.332632 -0.16965 1.09199 255 255 255
0.675833 -0.165802 1.22606 255 255 255
-0.126308 -0.114354 0.899584 255 255 255
0.556951 -0.15595 1.17927 255 255 255
0.366334 -0.111323 1.09797 255 255 255
0.456342 -0.100027 1.12868 255 255 255
0.506863 -0.125225 1.15489 255 255 255
0.662569 -0.124621 1.21001 255 255 255
0.0128477 -0.0784338 0.948917 255 255 255
0.490265 -0.0903834 1.14044 255 255 255
0.530761 -0.0830279 1.15384 255 255 255
-0.100791 -0.041399 0.896685 255 255 255
0.388371 -0.0568318 1.09419 255 255 255
0.442744 -0.0451597 1.11205 255 255 255
0.550172 -0.0712004 1.16022 255 255 255
0.574786 -0.068502 1.16991 255 255 255
0.11975 -0.0320296 1.08884 255 255 255
0.11975 -0.0320296 1.08884 255 255 255
0.451083 -0.0359362 1.11478 255 255 255
0.528064 -0.0358095 1.14683 255 255 255
-0.0943023 -0.00194458 0.888436 255 255 255
-0.0060563 -0.00337199 0.926669 255 255 255
0.0487347 -0.00843487 0.944822 255 255 255
0.536664 -0.00835461 1.14313 255 255 255
-0.0913151 0.0156512 0.889656 255 255 255
0.319209 0.0254017 1.11084 255 255 255
0.335172 0.0255402 1.10192 255 255 255
0.719746 0.0698515 1.35921 255 255 255
0.163943 0.0709886 1.08877 255 255 255
0.171146 0.0713437 1.09196 255 255 255
0.386995 0.0738173 1.07021 255 255 255
0.732814 0.0887691 1.35667 255 255 255
-0.0367291 0.084296 0.897042 255 255 255
0.417887 0.0967889 1.07766 255 255 255
0.471247 0.0969774 1.09638 255 255 255
0.551558 0.129865 1.12286 255 255 255
0.397985 0.145153 1.05622 255 255 255
0.416652 0.149749 1.06065 255 255 255
0.73593 0.178593 1.33721 255 255 255
0.528643 0.205253 1.0995 255 255 255
0.52648 0.22485 1.09049 255 255 255
-0.0453887 0.188166 0.870772 255 255 255
0.409458 0.237275 1.03717 255 255 255
0.409458 0.237275 1.03717 255 255 255
0.507537 0.246354 1.07474 255 255 255
-0.0962264 0.200225 0.844593 255 255 255
-0.105091 0.210376 0.839344 255 255 255
0.0179064 0.209611 0.88776 255 255 255
0.0165563 0.224102 0.884338 255 255 255
0.297747 0.247322 0.94222 255 255 255
-0.10698 0.244985 0.831693 255 255 255
-0.0767805 0.240512 0.844447 255 255 255
-0.000985864 -0.350075 0.994975 255 255 255
0.153959 -0.365275 1.06044 255 255 255
0.163983 -0.366658 1.06356 255 255 255
0.288242 -0.388896 1.11504 255 255 255
-0.219738 -0.295368 0.898275 255 255 255
-0.128235 -0.310344 0.931161 255 255 255
-0.120754 -0.298404 0.937142 255 255 255
0.214364 -0.351265 1.08087 255 255 255
0.271411 -0.3671 1.09808 255 255 255
0.29364 -0.363797 1.11475 255 255 255
0.2991 -0.365715 1.11636 255 255 255
0.301958 -0.355241 1.11611 255 255 255
0.369453 -0.390791 1.15007 255 255 255
0.358059 -0.361596 1.13853 255 255 255
0.459184 -0.385977 1.18321 255 255 255
-0.211479 -0.280795 0.891451 255 255 255
-0.211569 -0.264805 0.889656 255 255 255
-0.0698545 -0.293715 0.956082 255 255 255
0.284254 -0.338622 1.09943 255 255 255
0.277093 -0.330472 1.09907 255 255 255
0.322815 -0.347775 1.12088 255 255 255
0.337049 -0.351049 1.12686 255 255 255
0.347187 -0.352975 1.13274 255 255 255
0.347187 -0.352975 1.13274 255 255 255
0.354026 -0.346132 1.13461 255 255 255
0.366844 -0.34394 1.13912 255 255 255
0.237262 -0.30448 1.08022 255 255 255
0.358107 -0.329405 1.13397 255 255 255
0.68836 -0.357547 1.27721 255 255 255
0.0580599 -0.259783 1.00051 255 255 255
0.230734 -0.264318 1.06561 255 255 255
-0.20436 -0.209399 0.881322 255 255 255
0.23542 -0.260029 1.06843 255 255 255
0.256488 -0.25152 1.0763 255 255 255
0.39817 -0.266023 1.13638 255 255 255
0.528791 -0.269763 1.18784 255 255 255
0.528791 -0.269763 1.18784 255 255 255
0.668099 -0.238681 1.23817 255 255 255
0.644884 -0.226386 1.22503 255 255 255
0.333973 -0.189263 1.08975 255 255 255
0.654353 -0.21897 1.23001 255 255 255
0.0411833 -0.139353 0.968439 255 255 255
0.461964 -0.163587 1.14177 255 255 255
0.632717 -0.17592 1.21266 255 255 255
0.649895 -0.158482 1.21032 255 255 255
0.0490247 -0.103104 0.967059 255 255 255
0.369887 -0.0914226 1.09713 255 255 255
0.417689 -0.0860947 1.10773 255 255 255
0.472851 -0.0909691 1.13398 255 255 255
-0.110813 -0.0420042 0.886574 255 255 255
0.141811 -0.0192164 1.09476 255 255 255
-0.10296 -0.0147458 0.886628 255 255 255
0.463144 -0.0129716 1.1139 255 255 255
0.578885 0.0381714 1.14711 255 255 255
-0.283087 0.0873104 0.985382 255 255 255
0.559388 0.109263 1.13051 255 255 255
0.706708 0.109542 1.36433 255 255 255
0.706708 0.109542 1.36433 255 255 255
0.412953 0.126505 1.06773 255 255 255
-0.284839 0.120016 0.976352 255 255 255
-0.284839 0.120016 0.976352 255 255 255
0.0532311 0.121794 0.931371 255 255 255
0.408052 0.174681 1.05872 255 255 255
0.362295 0.197052 1.04342 255 255 255
0.522233 0.20638 1.09643 255 255 255
0.0397189 0.179743 0.910352 255 255 255
0.530458 0.230079 1.09016 255 255 255
-0.109899 0.191482 0.841101 255 255 255
0.0369302 0.197141 0.896221 255 255 255
0.337154 0.231298 1.03448 255 255 255
0.424447 0.234376 1.04394 255 255 255
0.373876 0.24902 0.971316 255 255 255
0.214357 0.244661 0.884963 255 255 255
-0.218332 -0.3053 0.900091 255 255 255
-0.118688 -0.33105 0.94518 255 255 255
-0.0934728 -0.334052 0.954636 255 255 255
-0.0732054 -0.336047 0.962679 255 255 255
-0.151253 -0.31199 0.922134 255 255 255
-0.115343 -0.310046 0.938651 255 255 255
-0.093916 -0.307324 0.949893 255 255 255
-0.0777112 -0.308591 0.956308 255 255 255
-0.00775483 -0.312658 0.985126 255 255 255
0.00750447 -0.325048 0.993171 255 255 255
0.126487 -0.349397 1.04477 255 255 255
0.202701 -0.345103 1.08103 255 255 255
0.206834 -0.357984 1.08353 255 255 255
0.284492 -0.356502 1.10974 255 255 255
0.424363 -0.389016 1.17091 255 255 255
-0.181213 -0.280592 0.91001 255 255 255
0.00633551 -0.306687 0.988593 255 255 255
0.143312 -0.319176 1.04669 255 255 255
0.220403 -0.33284 1.07749 255 255 255
0.271622 -0.345105 1.09303 255 255 255
0.33481 -0.331157 1.12322 255 255 255
0.361322 -0.350465 1.13674 255 255 255
0.412318 -0.349134 1.15874 255 255 255
-0.12479 -0.25692 0.927905 255 255 255
-0.00675584 -0.282439 0.979958 255 255 255
-0.00675584 -0.282439 0.979958 255 255 255
0.42 -0.327053 1.15671 255 255 255
-0.189745 -0.235738 0.898406 255 255 255
-0.19666 -0.182112 0.883964 255 255 255
0.292348 -0.222217 1.07808 255 255 255
0.539195 -0.247489 1.1897 255 255 255
0.158666 -0.198512 1.03003 255 255 255
0.17551 -0.202154 1.03713 255 255 255
0.291101 -0.176554 1.08592 255 255 255
-0.101724 -0.0792592 0.903288 255 255 255
0.64402 -0.100924 1.19719 255 255 255
0.663688 -0.1023 1.20115 255 255 255
0.386244 -0.0525964 1.09212 255 255 255
0.539835 -0.0497058 1.15273 255 255 255
-0.0868543 -0.0154766 0.895339 255 255 255
-0.0867443 -0.0154015 0.894969 255 255 255
0.328029 0.0116479 1.09617 255 255 255
0.379251 0.0644731 1.07561 255 255 255
0.0301505 0.0731419 0.927082 255 255 255
0.713875 0.154021 1.35425 255 255 255
0.708461 0.16222 1.35475 255 255 255
-0.0883144 0.122512 0.871557 255 255 255
-0.0714396 0.135191 0.875639 255 255 255
0.71429 0.230064 1.33916 255 255 255
0.71801 0.235511 1.32339 255 255 255
0.717409 0.247249 1.31813 255 255 255
-0.0469585 0.182421 0.870694 255 255 255
0.505034 0.228729 1.08089 255 255 255
-0.0101717 0.198421 0.878029 255 255 255
0.344377 0.225939 1.04099 255 255 255
0.338368 -0.391093 1.13335 255 255 255
-0.208161 -0.286055 0.893529 255 255 255
0.137834 -0.353814 1.05023 255 255 255
0.169069 -0.336509 1.0568 255 255 255
0.52736 -0.413314 1.21407 255 255 255
0.593434 -0.419792 1.23861 255 255 255
0.641985 -0.417317 1.25949 255 255 255
-0.197435 -0.284012 0.903869 255 255 255
-0.197845 -0.269641 0.901588 255 255 255
-0.0111816 -0.288779 0.978251 255 255 255
0.040751 -0.298101 1.00185 255 255 255
0.536649 -0.377854 1.21428 255 255 255
0.536649 -0.377854 1.21428 255 255 255
-0.113853 -0.253262 0.932901 255 255 255
0.32503 -0.324639 1.11902 255 255 255
0.316925 -0.31438 1.11445 255 255 255
0.371265 -0.286478 1.1304 255 255 255
0.606225 -0.293614 1.25334 255 255 255
0.667914 -0.300928 1.27931 255 255 255
0.219169 -0.200066 1.05911 255 255 255
0.250554 -0.19466 1.07106 255 255 255
0.664542 -0.207649 1.22575 255 255 255
0.121588 -0.149423 1.02782 255 255 255
