ply
format ascii 1.0
element vertex 1173
property float x
property float y
property float z
property uchar red
property uchar green
property uchar blue
end_header
0.148575 -0.0409835 0.585019 255 255 255
0.156269 -0.0429839 0.583785 255 255 255
-0.0818571 -0.00714127 0.548682 255 255 255
-0.0687506 -0.00716883 0.550497 255 255 255
-0.111732 0.00271277 0.539677 255 255 255
-0.110935 0.00405084 0.539115 255 255 255
-0.0701278 0.00420673 0.54757 255 255 255
-0.0483805 0.00329026 0.550361 255 255 255
0.101148 -0.011539 0.618878 255 255 255
-0.0400341 0.00371369 0.549066 255 255 255
0.156661 -0.00774008 0.577986 255 255 255
-0.0423537 0.0124247 0.548906 255 255 255
0.0940563 0.00835014 0.617075 255 255 255
0.157052 0.000452853 0.576354 255 255 255
-0.0891481 0.0251879 0.539879 255 255 255
-0.0891481 0.0251879 0.539879 255 255 255
-0.0574208 0.0290407 0.543404 255 255 255
-0.0337361 0.0244636 0.546779 255 255 255
0.157664 0.00931473 0.574177 255 255 255
0.153342 0.0307677 0.570353 255 255 255
0.158847 0.0283433 0.569491 255 255 255
-0.0924483 0.0488923 0.533705 255 255 255
-0.0777198 0.0471533 0.535937 255 255 255
-0.0624841 0.0552223 0.535761 255 255 255
-0.179306 0.0718059 0.606426 255 255 255
-0.0499423 0.0661298 0.534765 255 255 255
-0.1223 0.0790155 0.559274 255 255 255
-0.0682269 0.0717744 0.53091 255 255 255
0.0692658 0.0782833 0.597746 255 255 255
-0.186999 0.0931582 0.599957 255 255 255
-0.121548 0.0858855 0.557445 255 255 255
0.108114 0.089033 0.594991 255 255 255
0.108063 0.094138 0.593651 255 255 255
0.153133 0.0776473 0.558706 255 255 255
-0.0336367 0.0865346 0.529238 255 255 255
0.144627 0.101949 0.561635 255 255 255
-0.0393012 0.127243 0.516415 255 255 255
0.0794986 0.132091 0.516692 255 255 255
-0.113088 0.122252 0.508853 255 255 255
-0.11549 0.125405 0.507807 255 255 255
-0.113658 0.127757 0.50762 255 255 255
-0.109547 0.12677 0.508374 255 255 255
-0.101284 0.122927 0.509994 255 255 255
-0.0926049 0.126057 0.510461 255 255 255
-0.208731 0.137611 0.532317 255 255 255
-0.18622 0.138446 0.5345 255 255 255
-0.112489 0.135737 0.505917 255 255 255
-0.10877 0.135846 0.506084 255 255 255
-0.1046 0.130486 0.508206 255 255 255
-0.0962659 0.135928 0.507446 255 255 255
-0.0955972 0.133879 0.508111 255 255 255
-0.0799821 0.134978 0.509537 255 255 255
-0.0753177 0.134114 0.510524 255 255 255
-0.0556594 0.140009 0.510636 255 255 255
-0.00899589 0.133978 0.494233 255 255 255
-0.213802 0.13847 0.519646 255 255 255
-0.180237 0.141267 0.511305 255 255 255
-0.0773679 0.141079 0.508341 255 255 255
-0.160869 -0.0487869 0.549632 255 255 255
-0.0119742 -0.0725744 0.573364 255 255 255
-0.11074 -0.0474353 0.555457 255 255 255
-0.303887 -0.0148155 0.593755 255 255 255
-0.107108 -0.0407643 0.55419 255 255 255
-0.0552105 -0.0480764 0.56257 255 255 255
0.12012 -0.0798667 0.589458 255 255 255
0.120022 -0.0798628 0.589326 255 255 255
-0.0954802 -0.0318705 0.553159 255 255 255
0.141219 -0.0619623 0.587602 255 255 255
-0.307492 0.00635852 0.588032 255 255 255
0.147909 -0.0538061 0.586298 255 255 255
-0.0924994 -0.0170643 0.55029 255 255 255
-0.077652 -0.0154813 0.552069 255 255 255
-0.260985 0.0147057 0.519071 255 255 255
0.0863436 -0.0256392 0.620484 255 255 255
0.159265 -0.0334846 0.582732 255 255 255
0.160506 -0.0309249 0.582231 255 255 255
-0.0772134 0.00367848 0.546901 255 255 255
-0.254272 0.0233832 0.520403 255 255 255
-0.122805 0.0106659 0.539716 255 255 255
-0.0595439 0.0128039 0.546847 255 255 255
0.126027 -0.00146075 0.600024 255 255 255
0.126027 -0.00146075 0.600024 255 255 255
0.162548 -0.0156201 0.580916 255 255 255
-0.294008 0.0379225 0.581795 255 255 255
-0.0889854 0.0205027 0.541076 255 255 255
-0.144732 0.0356421 0.599899 255 255 255
-0.0719197 0.0293621 0.541028 255 255 255
-0.0262563 0.0291129 0.546854 255 255 255
0.0952969 0.0208482 0.615785 255 255 255
0.156812 0.0177408 0.571894 255 255 255
0.156812 0.0177408 0.571894 255 255 255
-0.286752 0.0495251 0.580168 255 255 255
-0.0733703 0.0382651 0.538531 255 255 255
0.139533 0.0293513 0.579143 255 255 255
-0.281576 0.059436 0.573923 255 255 255
-0.334679 0.0668768 0.56979 255 255 255
-0.334723 0.0683297 0.569289 255 255 255
-0.331378 0.0709494 0.56913 255 255 255
-0.323301 0.0702915 0.570423 255 255 255
-0.296708 0.0722135 0.572819 255 255 255
-0.295836 0.0734405 0.572718 255 255 255
-0.295941 0.0772039 0.571799 255 255 255
-0.264101 0.0735712 0.576631 255 255 255
-0.117827 0.0656242 0.526165 255 255 255
0.0683877 0.0677493 0.599554 255 255 255
0.155032 0.0561166 0.5634 255 255 255
0.108925 0.0828482 0.595566 255 255 255
-0.31137 0.0891851 0.567156 255 255 255
0.108912 0.0878617 0.594373 255 255 255
0.125344 0.110063 0.570077 255 255 255
0.144135 0.104857 0.555132 255 255 255
0.143256 0.120604 0.54771 255 255 255
-0.283996 0.130068 0.551809 255 255 255
-0.094049 0.125772 0.510877 255 255 255
-0.0923388 0.129854 0.509777 255 255 255
-0.0921719 0.130959 0.509597 255 255 255
-0.092141 0.130966 0.50963 255 255 255
-0.0760325 0.127474 0.511672 255 255 255
-0.0531551 0.130225 0.514047 255 255 255
0.0215214 0.134016 0.509471 255 255 255
-0.333004 0.134748 0.549134 255 255 255
-0.330944 0.132134 0.550055 255 255 255
-0.304046 0.133747 0.55305 255 255 255
-0.289619 0.135685 0.554273 255 255 255
-0.190682 0.138341 0.534078 255 255 255
-0.116257 0.133134 0.505886 255 255 255
-0.0904145 0.133394 0.509002 255 255 255
-0.324241 0.142587 0.548089 255 255 255
-0.296404 0.142472 0.551746 255 255 255
-0.294339 0.144114 0.551949 255 255 255
-0.217448 0.137431 0.519447 255 255 255
-0.167254 0.142307 0.512843 255 255 255
-0.143299 0.142837 0.526975 255 255 255
-0.108807 0.138667 0.505164 255 255 255
-0.102348 0.138233 0.506413 255 255 255
-0.0799586 0.141269 0.508594 255 255 255
-0.330602 0.143399 0.547088 255 255 255
-0.32874 0.144452 0.547241 255 255 255
-0.328751 0.144434 0.547207 255 255 255
-0.302903 0.150456 0.549392 255 255 255
-0.194114 0.14554 0.508425 255 255 255
-0.10726 0.146113 0.504048 255 255 255
-0.295537 0.155096 0.548427 255 255 255
-0.211326 0.143819 0.495459 255 255 255
-0.313514 -0.0307398 0.596848 255 255 255
-0.0638762 -0.0612145 0.56462 255 255 255
-0.0737014 -0.0317144 0.556322 255 255 255
-0.0735829 -0.0117581 0.550761 255 255 255
-0.13438 0.0164248 0.606381 255 255 255
0.0673345 0.0706339 0.599103 255 255 255
0.146284 0.0622971 0.566447 255 255 255
0.153679 0.0722488 0.560144 255 255 255
-0.100681 0.0832709 0.524263 255 255 255
-0.282711 0.111678 0.561169 255 255 255
-0.0865725 0.105951 0.52024 255 255 255
0.142602 0.117294 0.550474 255 255 255
0.144006 0.121679 0.54627 255 255 255
0.144022 0.121696 0.546281 255 255 255
-0.155359 0.129838 0.586914 255 255 255
-0.328548 0.134494 0.549491 255 255 255
-0.325053 0.135062 0.549853 255 255 255
-0.101808 0.132622 0.507657 255 255 255
-0.0816618 0.135883 0.509393 255 255 255
-0.077543 0.135609 0.509818 255 255 255
-0.0350521 0.137071 0.514269 255 255 255
-0.331984 0.136258 0.548783 255 255 255
-0.329082 0.14156 0.547494 255 255 255
-0.325365 0.142966 0.547763 255 255 255
-0.313807 0.138675 0.550518 255 255 255
-0.314528 0.142805 0.549133 255 255 255
-0.102434 0.140275 0.505545 255 255 255
-0.335398 0.143506 0.546258 255 255 255
-0.327823 0.147969 0.546435 255 255 255
-0.112749 0.144613 0.503537 255 255 255
-0.32369 0.156216 0.545149 255 255 255
-0.32369 0.156216 0.545149 255 255 255
-0.300774 -0.0339254 0.599185 255 255 255
-0.238252 -0.0206542 0.534306 255 255 255
-0.111538 -0.0457787 0.554799 255 255 255
-0.0772635 -0.0488666 0.560344 255 255 255
-0.314425 0.0174757 0.584283 255 255 255
0.139235 -0.0272996 0.587829 255 255 255
-0.242775 0.0173036 0.522014 255 255 255
0.119872 -0.000697374 0.602033 255 255 255
-0.259584 0.0345064 0.522232 255 255 255
-0.314429 0.0493263 0.576612 255 255 255
-0.152067 0.0409266 0.604519 255 255 255
0.126728 0.0232168 0.589566 255 255 255
0.148766 0.0203179 0.575949 255 255 255
-0.313058 0.0623808 0.573458 255 255 255
-0.118965 0.0504266 0.536173 255 255 255
-0.109085 0.0496699 0.531666 255 255 255
-0.316442 0.0805118 0.568308 255 255 255
-0.120477 0.075672 0.541341 255 255 255
-0.316418 0.0998629 0.551988 255 255 255
-0.202717 0.128006 0.558217 255 255 255
-0.0957734 0.126588 0.510632 255 255 255
-0.334101 0.137075 0.548732 255 255 255
-0.325501 0.137433 0.549703 255 255 255
-0.319359 0.137967 0.550018 255 255 255
-0.303066 0.144699 0.55047 255 255 255
-0.147007 0.142813 0.514883 255 255 255
-0.331771 0.152075 0.545161 255 255 255
-0.327231 0.149484 0.546596 255 255 255
-0.326176 0.150507 0.546123 255 255 255
-0.130465 -0.0131219 0.546104 255 255 255
-0.323127 0.0483236 0.575939 255 255 255
-0.040222 0.0342695 0.543931 255 255 255
0.140304 0.0209939 0.578733 255 255 255
-0.120105 0.100346 0.537734 255 255 255
-0.0249204 0.135306 0.516413 255 255 255
-0.29922 0.134434 0.55279 255 255 255
-0.323548 0.150957 0.546362 255 255 255
-0.258306 -0.0197213 0.530669 255 255 255
-0.285365 0.0103017 0.588384 255 255 255
-0.153699 0.0292127 0.616082 255 255 255
-0.122163 0.0272049 0.535847 255 255 255
-0.296232 0.081224 0.571352 255 255 255
-0.0360861 0.0700877 0.536754 255 255 255
0.127157 0.106676 0.571752 255 255 255
-0.281038 0.123685 0.553559 255 255 255
-0.320288 0.135851 0.550411 255 255 255
-0.320288 0.135851 0.550411 255 255 255
-0.317807 0.137048 0.550089 255 255 255
-0.270519 0.115349 0.492055 255 255 255
-0.272834 0.027091 0.586829 255 255 255
-0.114552 0.0107935 0.538832 255 255 255
-0.317126 0.101661 0.551466 255 255 255
-0.317126 0.101661 0.551466 255 255 255
0.144864 0.0320718 0.576133 255 255 255
-0.156049 0.139351 0.526478 255 255 255
-0.320656 0.15407 0.54571 255 255 255
-0.302134 3.54049e-05 0.59036 255 255 255
-0.139342 0.0556284 0.598855 255 255 255
-0.194877 -0.0678665 0.548182 255 255 255
-0.0885462 -0.0861722 0.567788 255 255 255
0.204836 -0.0611106 0.596982 255 255 255
0.0838249 -0.0443948 0.608475 255 255 255
0.295888 -0.0383803 0.598518 255 255 255
0.374855 0.0887803 0.649689 255 255 255
0.378335 0.103617 0.646448 255 255 255
-0.117572 0.138947 0.504352 255 255 255
0.0802009 -0.0835157 0.588369 255 255 255
-0.0529276 0.0116865 0.547751 255 255 255
0.126274 0.030836 0.593607 255 255 255
-0.0842235 0.117266 0.515245 255 255 255
-0.0992799 0.0506789 0.532639 255 255 255
0.148149 0.0339406 0.572238 255 255 255
-0.202953 0.146172 0.506839 255 255 255
0.0502635 -0.0758457 0.587922 255 255 255
0.04281 -0.0435042 0.604503 255 255 255
-0.295221 -0.0289085 0.598015 255 255 255
-0.278731 -0.031425 0.597833 255 255 255
-0.160832 -0.0486977 0.549606 255 255 255
-0.148376 -0.055706 0.54945 255 255 255
-0.0542065 -0.0626864 0.566059 255 255 255
0.0814902 -0.0999339 0.590064 255 255 255
-0.0759121 -0.0492501 0.559916 255 255 255
0.106431 -0.0932946 0.589128 255 255 255
0.104105 -0.0883128 0.589766 255 255 255
-0.0510577 -0.0482398 0.56334 255 255 255
-0.00265244 -0.0600704 0.571209 255 255 255
-0.0605822 -0.0386126 0.559329 255 255 255
-0.0384102 -0.0135275 0.551424 255 255 255
0.0714615 -0.0319663 0.620554 255 255 255
-0.257279 0.0281499 0.520361 255 255 255
-0.126624 0.00867916 0.549289 255 255 255
0.0979606 -0.0170051 0.618826 255 255 255
0.11863 -0.00692924 0.603247 255 255 255
-0.316627 0.0576755 0.574215 255 255 255
-0.263133 0.04795 0.582789 255 255 255
-0.263133 0.04795 0.582789 255 255 255
-0.259669 0.0531133 0.581984 255 255 255
-0.125076 0.030888 0.591933 255 255 255
-0.259562 0.0592582 0.580579 255 255 255
-0.123572 0.057042 0.572201 255 255 255
-0.0563289 0.0402423 0.540245 255 255 255
-0.295913 0.0772395 0.57189 255 255 255
-0.122272 0.0654687 0.563175 255 255 255
0.109186 0.0534222 0.602976 255 255 255
-0.179199 0.0821514 0.603761 255 255 255
-0.0594628 0.0588338 0.535086 255 255 255
-0.260428 0.0907453 0.572551 255 255 255
0.109001 0.0729615 0.597922 255 255 255
0.0682517 0.0888403 0.595021 255 255 255
0.104085 0.0965488 0.598468 255 255 255
-0.15243 0.111272 0.594502 255 255 255
-0.178959 0.125804 0.592823 255 255 255
0.115956 0.110769 0.573105 255 255 255
-0.27398 0.122254 0.562586 255 255 255
-0.0700079 0.12601 0.513096 255 255 255
-0.126451 0.138956 0.541149 255 255 255
-0.121384 0.126128 0.506978 255 255 255
-0.0774067 0.126751 0.51195 255 255 255
-0.270042 0.124994 0.489894 255 255 255
-0.209016 0.138266 0.520316 255 255 255
-0.193913 0.138543 0.522143 255 255 255
-0.164388 0.14116 0.513253 255 255 255
-0.0930525 0.140948 0.506755 255 255 255
-0.0216836 0.138986 0.480463 255 255 255
-0.255153 0.129677 0.490326 255 255 255
-0.120681 0.147442 0.501693 255 255 255
-0.0850632 0.147926 0.506202 255 255 255
-0.030555 0.139491 0.478991 255 255 255
-0.334255 0.149047 0.545052 255 255 255
-0.225525 0.143583 0.493998 255 255 255
-0.226927 0.145459 0.493237 255 255 255
-0.146387 0.149028 0.502473 255 255 255
-0.302014 -0.0364362 0.599196 255 255 255
-0.30408 -0.0163406 0.594025 255 255 255
-0.303796 -0.0137656 0.593513 255 255 255
-0.274049 -0.0238614 0.598849 255 255 255
-0.117259 -0.0557404 0.556437 255 255 255
-0.271672 -0.00576943 0.57623 255 255 255
-0.268504 -0.00945691 0.551405 255 255 255
-0.326897 0.0110287 0.584522 255 255 255
0.0796005 -0.0811244 0.5892 255 255 255
0.101045 -0.0763266 0.587246 255 255 255
-0.03149 -0.0437809 0.563664 255 255 255
-0.0885325 -0.00704912 0.547893 255 255 255
-0.063108 -0.0163144 0.553941 255 255 255
0.117058 -0.0357571 0.599479 255 255 255
-0.122924 0.0104258 0.582527 255 255 255
-0.0468915 -0.00177557 0.551264 255 255 255
0.135264 -0.034592 0.589246 255 255 255
0.154373 -0.034874 0.584391 255 255 255
-0.294904 0.049578 0.578607 255 255 255
-0.294895 0.0495784 0.578638 255 255 255
-0.106358 0.0192814 0.537911 255 255 255
-0.0902036 0.0111908 0.543278 255 255 255
-0.0980826 0.0161893 0.539056 255 255 255
-0.0488476 0.0135882 0.548743 255 255 255
-0.0424377 0.00370012 0.549304 255 255 255
-0.0424374 0.00369556 0.54934 255 255 255
0.0926713 -0.00156283 0.623725 255 255 255
0.113332 -0.00755559 0.607036 255 255 255
-0.123648 0.0287744 0.585559 255 255 255
-0.125942 0.0231769 0.53668 255 255 255
0.131935 0.00785571 0.59203 255 255 255
-0.120671 0.0418079 0.555257 255 255 255
-0.117512 0.0501909 0.530445 255 255 255
0.107722 0.0321274 0.609057 255 255 255
0.124386 0.0289127 0.5957 255 255 255
-0.122756 0.0637113 0.571765 255 255 255
-0.119034 0.0543265 0.536587 255 255 255
-0.11831 0.0532338 0.530354 255 255 255
0.116249 0.0520388 0.596421 255 255 255
0.126536 0.0470633 0.589414 255 255 255
0.146616 0.0448338 0.571044 255 255 255
-0.263289 0.0817997 0.574543 255 255 255
0.153843 0.0590611 0.562659 255 255 255
-0.258613 0.0936536 0.572002 255 255 255
-0.185959 0.0911357 0.598568 255 255 255
-0.141775 0.0938444 0.589847 255 255 255
-0.121845 0.0796897 0.558237 255 255 255
-0.101472 0.0700355 0.527525 255 255 255
0.14408 0.065964 0.569544 255 255 255
0.153884 0.0627345 0.562604 255 255 255
-0.123708 0.0894644 0.567197 255 255 255
-0.32229 0.103561 0.550131 255 255 255
-0.02602 0.0977713 0.529064 255 255 255
0.102696 0.106455 0.594708 255 255 255
0.116147 0.101406 0.584195 255 255 255
0.126395 0.0957285 0.577337 255 255 255
0.14567 0.093337 0.561293 255 255 255
-0.246366 0.100948 0.502615 255 255 255
0.113473 0.119822 0.573998 255 255 255
-0.0570827 0.113924 0.511867 255 255 255
0.125342 0.124012 0.560329 255 255 255
0.144749 0.119509 0.546858 255 255 255
-0.183523 0.133287 0.559331 255 255 255
-0.16993 0.132042 0.549939 255 255 255
-0.124967 0.126084 0.534896 255 255 255
-0.088386 0.118233 0.513451 255 255 255
-0.269565 0.114376 0.492034 255 255 255
-0.0826895 0.132622 0.510628 255 255 255
-0.0233787 0.132388 0.517481 255 255 255
0.0569261 0.138943 0.501525 255 255 255
-0.120643 0.137558 0.503702 255 255 255
-0.104166 0.142112 0.505119 255 255 255
-0.122832 0.143724 0.511186 255 255 255
-0.0511522 0.138542 0.46476 255 255 255
-0.0306428 0.141376 0.466599 255 255 255
-0.18173 0.146534 0.498411 255 255 255
-0.0919808 -0.0654142 0.562703 255 255 255
-0.0917884 -0.0555833 0.559514 255 255 255
0.0969979 -0.0993441 0.593098 255 255 255
0.0272722 -0.0766447 0.579103 255 255 255
0.0523649 -0.0832888 0.583906 255 255 255
-0.325272 0.0171013 0.583484 255 255 255
-0.313188 0.0102637 0.58643 255 255 255
-0.32833 0.0215931 0.58222 255 255 255
-0.308053 0.0274393 0.582621 255 255 255
-0.243532 0.0103431 0.524997 255 255 255
-0.131464 -0.00463905 0.563584 255 255 255
-0.263393 0.0282776 0.587511 255 255 255
-0.130825 -0.00283964 0.561577 255 255 255
-0.297549 0.0412776 0.580469 255 255 255
-0.126771 0.00682014 0.553309 255 255 255
-0.142154 0.0385548 0.602206 255 255 255
0.141421 -0.0011052 0.585581 255 255 255
0.11304 0.0176421 0.592773 255 255 255
-0.118974 0.0488794 0.530999 255 255 255
-0.119442 0.0538984 0.539189 255 255 255
-0.119442 0.0538984 0.539189 255 255 255
-0.118397 0.0537639 0.532513 255 255 255
-0.118948 0.0626465 0.533407 255 255 255
-0.119266 0.0731268 0.532656 255 255 255
-0.11746 0.0707001 0.525151 255 255 255
-0.118414 0.0781175 0.524468 255 255 255
0.116147 0.0788857 0.58983 255 255 255
-0.258802 0.0990927 0.570719 255 255 255
-0.159527 0.116246 0.598259 255 255 255
-0.119068 0.0904551 0.528066 255 255 255
-0.117711 0.0924544 0.519488 255 255 255
-0.117549 0.0938986 0.519219 255 255 255
0.12608 0.0989053 0.576578 255 255 255
0.117404 0.10582 0.581729 255 255 255
-0.260703 0.101095 0.500729 255 255 255
-0.245595 0.0994182 0.504566 255 255 255
-0.0860155 0.0985483 0.522191 255 255 255
-0.0860395 0.101351 0.521531 255 255 255
-0.0860395 0.101351 0.521531 255 255 255
0.112761 0.117348 0.584439 255 255 255
0.112084 0.122233 0.583182 255 255 255
0.122878 0.113755 0.571541 255 255 255
0.127809 0.110193 0.566674 255 255 255
-0.128381 0.113224 0.519449 255 255 255
0.114522 0.126895 0.572127 255 255 255
-0.0162653 0.127403 0.511644 255 255 255
-0.330596 0.133214 0.549986 255 255 255
-0.153246 0.135455 0.538863 255 255 255
-0.126423 0.136621 0.542482 255 255 255
-0.125537 0.138175 0.538553 255 255 255
-0.125671 0.140314 0.5396 255 255 255
-0.125093 0.136223 0.533078 255 255 255
-0.122871 0.128787 0.512317 255 255 255
0.0132263 0.130749 0.509468 255 255 255
0.0229929 0.134117 0.498502 255 255 255
-0.331984 0.136258 0.548783 255 255 255
-0.303074 0.144703 0.550395 255 255 255
-0.0328013 0.136125 0.492062 255 255 255
-0.0279467 0.138098 0.479537 255 255 255
-0.0434572 0.14146 0.489083 255 255 255
-0.333704 -0.0200737 0.592353 255 255 255
-0.326549 -0.0160991 0.591657 255 255 255
-0.305385 -0.00591547 0.591594 255 255 255
0.000599967 -0.0878446 0.578639 255 255 255
-0.283481 -0.000296383 0.590252 255 255 255
-0.14974 -0.0376246 0.55001 255 255 255
-0.0227789 -0.0675173 0.571732 255 255 255
-0.133519 -0.01925 0.547361 255 255 255
0.123929 -0.0568625 0.590932 255 255 255
-0.25593 0.0168204 0.521025 255 255 255
-0.127927 0.00311934 0.550745 255 255 255
-0.325861 0.041891 0.577166 255 255 255
-0.0967217 0.0135339 0.53798 255 255 255
0.0730031 -0.00323812 0.617765 255 255 255
0.0730031 -0.00323812 0.617765 255 255 255
0.0916227 -0.00942749 0.623174 255 255 255
0.14973 -0.013447 0.583127 255 255 255
-0.261022 0.0493107 0.582582 255 255 255
-0.150616 0.0388529 0.6035 255 255 255
0.122348 0.00974864 0.60063 255 255 255
0.130309 0.00166829 0.593119 255 255 255
0.130309 0.00166829 0.593119 255 255 255
-0.261018 0.0643316 0.578805 255 255 255
0.130992 0.0295028 0.58747 255 255 255
-0.120032 0.0638933 0.547041 255 255 255
-0.0423401 0.0642114 0.536435 255 255 255
-0.260729 0.0914683 0.572399 255 255 255
-0.256956 0.0872551 0.573835 255 255 255
-0.11835 0.0694805 0.526737 255 255 255
-0.118671 0.0776069 0.527214 255 255 255
-0.334013 0.100677 0.550493 255 255 255
-0.333959 0.100728 0.5507 255 255 255
-0.257892 0.0971968 0.571261 255 255 255
-0.118473 0.0811566 0.523882 255 255 255
-0.117499 0.08698 0.521009 255 255 255
-0.262664 0.104378 0.569121 255 255 255
-0.109363 0.09142 0.521075 255 255 255
-0.0368096 0.0972913 0.528442 255 255 255
-0.02168 0.0975643 0.530406 255 255 255
0.139259 0.0942301 0.568643 255 255 255
-0.107266 0.0997355 0.519424 255 255 255
0.12587 0.116836 0.562894 255 255 255
-0.311927 0.118162 0.549033 255 255 255
-0.265921 0.103301 0.49934 255 255 255
-0.152024 0.140622 0.537609 255 255 255
-0.0585756 0.132999 0.513422 255 255 255
-0.0527181 0.132892 0.513495 255 255 255
-0.294129 0.142588 0.551988 255 255 255
-0.00802507 0.134927 0.493068 255 255 255
0.00509498 0.138955 0.483719 255 255 255
-0.125036 0.146507 0.51248 255 255 255
-0.176213 0.147938 0.498999 255 255 255
-0.135797 0.148776 0.498664 255 255 255
-0.164283 -0.0455688 0.550252 255 255 255
0.0665554 -0.080056 0.588894 255 255 255
-0.291923 0.0120546 0.588802 255 255 255
-0.283703 0.01206 0.587087 255 255 255
-0.276589 0.0143996 0.588494 255 255 255
-0.27158 0.0108783 0.588808 255 255 255
-0.276332 0.0173581 0.587888 255 255 255
-0.261936 0.0121218 0.519328 255 255 255
-0.133134 -0.00922744 0.564715 255 255 255
-0.119805 0.0394485 0.548925 255 255 255
0.116675 0.0181043 0.591356 255 255 255
0.121474 0.0217162 0.591808 255 255 255
-0.119247 0.0436969 0.546984 255 255 255
0.128442 0.0232909 0.586162 255 255 255
-0.262481 0.0727219 0.577024 255 255 255
-0.156449 0.0730024 0.607128 255 255 255
-0.118406 0.0592842 0.529422 255 255 255
-0.25687 0.0952346 0.571572 255 255 255
-0.118875 0.0707503 0.530826 255 255 255
0.112141 0.0806687 0.5945 255 255 255
-0.260938 0.102321 0.569848 255 255 255
-0.169483 0.104787 0.599304 255 255 255
-0.130856 0.0997979 0.586177 255 255 255
0.105841 0.0918601 0.596906 255 255 255
0.109436 0.103514 0.587784 255 255 255
0.110491 0.103035 0.588898 255 255 255
-0.257289 0.104929 0.499998 255 255 255
-0.122587 0.11793 0.509961 255 255 255
-0.0787268 0.118991 0.514264 255 255 255
-0.0593359 0.121941 0.515889 255 255 255
-0.0309137 0.135632 0.479095 255 255 255
-0.317305 0.149905 0.547642 255 255 255
-0.0221467 0.139412 0.468548 255 255 255
-0.0629684 -0.0707559 0.56775 255 255 255
0.0777087 -0.0944048 0.589196 255 255 255
-0.329186 0.0254814 0.580832 255 255 255
-0.241114 0.0128399 0.522287 255 255 255
0.137712 -0.0397868 0.585365 255 255 255
-0.262412 0.0340211 0.586326 255 255 255
0.124531 0.0137346 0.594554 255 255 255
-0.127865 0.0514169 0.597915 255 255 255
-0.258062 0.0842942 0.57437 255 255 255
-0.127746 0.079692 0.591089 255 255 255
-0.134019 0.0856224 0.591035 255 255 255
-0.116806 0.0883771 0.520123 255 255 255
-0.0403122 0.0934595 0.527909 255 255 255
0.131027 0.0944005 0.572356 255 255 255
0.128123 0.101894 0.568391 255 255 255
-0.14619 0.119212 0.581311 255 255 255
-0.146089 0.123425 0.580069 255 255 255
-0.282024 0.137095 0.550138 255 255 255
-0.282065 0.137078 0.550052 255 255 255
-0.268707 0.14134 0.485598 255 255 255
-0.318011 0.0165843 0.584253 255 255 255
-0.265466 0.0317442 0.586839 255 255 255
-0.264837 0.0443136 0.584416 255 255 255
-0.144086 0.0534027 0.601905 255 255 255
-0.144138 0.0533535 0.601863 255 255 255
-0.143738 0.0728702 0.597584 255 255 255
-0.12096 0.0549408 0.547378 255 255 255
-0.13407 0.0808084 0.592222 255 255 255
-0.139093 0.0892864 0.591039 255 255 255
0.10306 0.0775653 0.600543 255 255 255
-0.118737 0.0827494 0.536708 255 255 255
-0.119167 0.0894358 0.534639 255 255 255
-0.149008 0.116765 0.585159 255 255 255
-0.281983 0.130213 0.551714 255 255 255
-0.267747 0.110946 0.494207 255 255 255
-0.142004 0.139624 0.539536 255 255 255
-0.125288 0.142144 0.52675 255 255 255
-0.0335836 0.13686 0.503017 255 255 255
-0.0431087 0.139605 0.489123 255 255 255
0.00223818 -0.0708043 0.573868 255 255 255
-0.14817 0.0450231 0.60349 255 255 255
-0.326232 -0.00206706 0.588213 255 255 255
-0.275867 0.146297 0.484874 255 255 255
-0.122272 0.065474 0.552092 255 255 255
-0.124079 0.121324 0.575078 255 255 255
-0.261911 0.0231258 0.517832 255 255 255
-0.119182 0.0697572 0.532018 255 255 255
-0.312412 -0.0421057 0.59928 255 255 255
-0.312412 -0.0421057 0.59928 255 255 255
-0.220131 -0.070213 0.547885 255 255 255
-0.183929 -0.0771451 0.551372 255 255 255
-0.133191 -0.0995578 0.566009 255 255 255
-0.130511 -0.0972927 0.565554 255 255 255
-0.110759 -0.103773 0.569809 255 255 255
-0.0410388 -0.127112 0.583579 255 255 255
0.0624981 -0.15817 0.604164 255 255 255
-0.146622 -0.0874989 0.561267 255 255 255
-0.141526 -0.0884978 0.562221 255 255 255
-0.139494 -0.0882942 0.562336 255 255 255
-0.117623 -0.0978757 0.567321 255 255 255
-0.123608 -0.0883859 0.564583 255 255 255
-0.0527062 -0.115837 0.579809 255 255 255
-0.0527156 -0.115828 0.579789 255 255 255
0.0601865 -0.144488 0.602637 255 255 255
0.0633202 -0.155272 0.603069 255 255 255
0.0871432 -0.153851 0.608859 255 255 255
-0.0436412 -0.108376 0.579057 255 255 255
-0.0548328 -0.0970258 0.574438 255 255 255
-0.0361517 -0.108382 0.57938 255 255 255
0.0843616 -0.15161 0.60894 255 255 255
-0.214219 -0.0468383 0.542914 255 255 255
-0.193436 -0.0528286 0.54705 255 255 255
-0.163494 -0.058237 0.548852 255 255 255
-0.132402 -0.0650856 0.55718 255 255 255
-0.10279 -0.0729499 0.562731 255 255 255
-0.0889522 -0.0815778 0.566625 255 255 255
-0.0648515 -0.0849393 0.570046 255 255 255
-0.0563833 -0.0863363 0.571767 255 255 255
0.00706806 -0.108531 0.585334 255 255 255
0.0459588 -0.120303 0.593268 255 255 255
0.0599185 -0.128424 0.595333 255 255 255
0.0657853 -0.120676 0.592869 255 255 255
-0.164839 -0.0540692 0.547259 255 255 255
-0.160866 -0.0473093 0.549382 255 255 255
-0.144874 -0.05344 0.549211 255 255 255
-0.0878283 -0.0731661 0.564292 255 255 255
-0.0344206 -0.085421 0.573866 255 255 255
-0.0268247 -0.084985 0.574418 255 255 255
0.050474 -0.106092 0.587904 255 255 255
-0.157607 -0.0457009 0.549353 255 255 255
-0.0916415 -0.0597725 0.560746 255 255 255
-0.242016 0.0151196 0.521486 255 255 255
-0.120769 0.00180171 0.542074 255 255 255
0.101359 -0.0128869 0.618328 255 255 255
-0.101373 0.0214112 0.538258 255 255 255
-0.0468672 0.0335431 0.543069 255 255 255
-0.106256 0.0542449 0.530773 255 255 255
-0.106105 0.0612911 0.529058 255 255 255
-0.0973163 0.0762268 0.526454 255 255 255
-0.255468 0.0933116 0.505769 255 255 255
-0.108229 0.122482 0.509331 255 255 255
-0.102149 0.12369 0.509723 255 255 255
-0.102139 0.123695 0.509688 255 255 255
-0.0923746 0.129848 0.509663 255 255 255
-0.0554798 0.13097 0.513385 255 255 255
0.00541504 0.134411 0.507325 255 255 255
0.0297585 0.133951 0.499264 255 255 255
-0.19579 0.138701 0.533596 255 255 255
-0.112622 0.138192 0.504725 255 255 255
-0.103613 0.140936 0.505361 255 255 255
-0.0955834 0.139568 0.506799 255 255 255
-0.0713138 0.141317 0.50907 255 255 255
-0.0610361 0.137735 0.510913 255 255 255
-0.185617 0.141493 0.510736 255 255 255
-0.247586 0.140194 0.488463 255 255 255
-0.330245 -0.0374214 0.596144 255 255 255
-0.290097 -0.0515296 0.604333 255 255 255
-0.246559 -0.0557249 0.541398 255 255 255
-0.173744 -0.0835661 0.556065 255 255 255
-0.131459 -0.0995568 0.565988 255 255 255
-0.0467179 -0.128718 0.583383 255 255 255
-0.31225 -0.0361498 0.598067 255 255 255
-0.290113 -0.0417913 0.602165 255 255 255
-0.193462 -0.0686444 0.54833 255 255 255
-0.187423 -0.0687631 0.550121 255 255 255
-0.122225 -0.0962196 0.566348 255 255 255
-0.0471055 -0.120753 0.581046 255 255 255
-0.060732 -0.110835 0.577551 255 255 255
-0.211302 -0.0520295 0.544523 255 255 255
-0.185078 -0.0663548 0.549932 255 255 255
-0.183077 -0.0632215 0.548443 255 255 255
-0.0692845 -0.0960638 0.572557 255 255 255
-0.14649 -0.065547 0.555945 255 255 255
-0.122896 -0.067986 0.558989 255 255 255
-0.0195718 -0.104499 0.5805 255 255 255
-0.00599868 -0.109578 0.583946 255 255 255
0.0571028 -0.127665 0.595629 255 255 255
0.0634373 -0.12328 0.593255 255 255 255
-0.23732 -0.0326033 0.536766 255 255 255
-0.117017 -0.0580895 0.557171 255 255 255
-0.0838191 -0.0716963 0.564739 255 255 255
-0.100022 -0.0665928 0.561339 255 255 255
-0.0291939 -0.083503 0.574204 255 255 255
0.0242831 -0.099345 0.584726 255 255 255
-0.241732 -0.0203178 0.533228 255 255 255
-0.114367 -0.0458669 0.55448 255 255 255
-0.248881 -0.00511987 0.528858 255 255 255
0.0880369 -0.0792557 0.589828 255 255 255
-0.126639 0.00252395 0.544653 255 255 255
-0.0876061 -0.0057708 0.547627 255 255 255
-0.26435 0.0430188 0.583718 255 255 255
-0.126636 0.0197694 0.545156 255 255 255
-0.125995 0.0199404 0.535546 255 255 255
-0.0501351 0.00635668 0.549772 255 255 255
0.109484 -0.012409 0.611767 255 255 255
-0.260581 0.0517138 0.582088 255 255 255
-0.155593 0.0416123 0.612624 255 255 255
-0.047814 0.0219064 0.545774 255 255 255
0.10461 0.00884305 0.618307 255 255 255
0.125991 -0.00331673 0.598947 255 255 255
0.131329 -0.00206571 0.594501 255 255 255
-0.118472 0.0331335 0.532456 255 255 255
-0.187092 0.0715153 0.605428 255 255 255
-0.0394517 0.0763742 0.530733 255 255 255
-0.348799 0.106503 0.547918 255 255 255
-0.341974 0.104318 0.549352 255 255 255
-0.0665746 0.0932112 0.525785 255 255 255
-0.341299 0.111545 0.54783 255 255 255
-0.310904 0.119448 0.54905 255 255 255
-0.0498672 0.111504 0.511872 255 255 255
-0.262101 0.111398 0.494917 255 255 255
-0.0711815 0.128338 0.513119 255 255 255
-0.335877 0.140449 0.547024 255 255 255
-0.327035 0.142405 0.547799 255 255 255
-0.335376 0.143546 0.546367 255 255 255
-0.304246 0.146759 0.549504 255 255 255
-0.30235 0.147909 0.549836 255 255 255
-0.293472 0.151291 0.549943 255 255 255
-0.253961 0.132847 0.489637 255 255 255
-0.22568 0.142472 0.505675 255 255 255
-0.246374 0.138349 0.489325 255 255 255
-0.318443 -0.0437371 0.599093 255 255 255
-0.31675 -0.0445512 0.599543 255 255 255
-0.252288 -0.0552085 0.540337 255 255 255
-0.247903 -0.058415 0.541678 255 255 255
-0.245695 -0.0569344 0.541678 255 255 255
-0.132576 -0.0954931 0.565034 255 255 255
-0.302178 -0.0416251 0.600301 255 255 255
-0.294703 -0.0420448 0.601823 255 255 255
-0.207367 -0.0661089 0.545139 255 255 255
-0.182642 -0.0696333 0.549801 255 255 255
-0.181154 -0.0709591 0.549843 255 255 255
-0.135552 -0.0919799 0.563886 255 255 255
-0.202701 -0.0561484 0.542983 255 255 255
-0.199445 -0.0565592 0.543405 255 255 255
-0.207548 -0.050883 0.545139 255 255 255
-0.200031 -0.0529925 0.545857 255 255 255
-0.136269 -0.0637547 0.556494 255 255 255
-0.0993491 -0.0807837 0.565211 255 255 255
-0.0864365 -0.08287 0.567416 255 255 255
-0.0552704 -0.095238 0.57406 255 255 255
-0.011455 -0.0970864 0.579724 255 255 255
-0.147679 -0.0523994 0.549046 255 255 255
-0.0795588 -0.0713962 0.565064 255 255 255
-0.0795573 -0.0713987 0.56508 255 255 255
-0.00433666 -0.0922722 0.579367 255 255 255
-0.00890974 -0.0897854 0.578079 255 255 255
0.0497224 -0.103741 0.58805 255 255 255
0.0447319 -0.101984 0.587355 255 255 255
-0.321423 -0.0044486 0.589082 255 255 255
-0.0858128 -0.0632677 0.562398 255 255 255
-0.300667 0.00365615 0.589539 255 255 255
0.0353619 -0.0796506 0.580874 255 255 255
0.0604639 -0.0837673 0.584753 255 255 255
-0.32754 0.0101175 0.584823 255 255 255
0.00732261 -0.0640092 0.574746 255 255 255
0.0379131 -0.067148 0.588331 255 255 255
-0.332741 0.019069 0.581944 255 255 255
-0.261692 0.0156203 0.519906 255 255 255
-0.261069 0.0167126 0.51998 255 255 255
0.103885 -0.0487024 0.601653 255 255 255
-0.350259 0.0408745 0.57416 255 255 255
-0.111237 -0.00361338 0.541445 255 255 255
-0.301272 0.0409345 0.579976 255 255 255
-0.112728 0.00434099 0.539254 255 255 255
-0.243795 0.037268 0.591889 255 255 255
-0.26126 0.0347927 0.523158 255 255 255
-0.127383 0.0239539 0.548785 255 255 255
-0.150861 0.0422318 0.603688 255 255 255
0.0895979 0.0111932 0.615573 255 255 255
-0.120784 0.0492589 0.547419 255 255 255
-0.341106 0.0790697 0.566042 255 255 255
-0.341673 0.0934297 0.550002 255 255 255
-0.342816 0.0944043 0.54986 255 255 255
-0.341645 0.0951284 0.549718 255 255 255
-0.341645 0.0951284 0.549718 255 255 255
-0.348196 0.101707 0.549383 255 255 255
-0.332921 0.107167 0.548218 255 255 255
-0.329811 0.101416 0.551898 255 255 255
-0.0952168 0.112365 0.517301 255 255 255
-0.0732624 0.113189 0.518095 255 255 255
-0.340881 0.141234 0.546602 255 255 255
-0.337678 0.140135 0.546541 255 255 255
-0.336988 0.14161 0.546694 255 255 255
-0.293604 0.139286 0.552321 255 255 255
-0.0328711 0.136086 0.492015 255 255 255
-0.345182 0.145101 0.544851 255 255 255
-0.344716 0.146157 0.544548 255 255 255
-0.340863 0.147537 0.545152 255 255 255
-0.343953 0.150375 0.543743 255 255 255
-0.341594 0.149901 0.544291 255 255 255
-0.344013 0.152699 0.543049 255 255 255
-0.342822 0.151756 0.544072 255 255 255
-0.339602 0.152365 0.544158 255 255 255
-0.335159 0.152237 0.543955 255 255 255
-0.314412 0.154338 0.546951 255 255 255
-0.254855 0.140072 0.487676 255 255 255
-0.250381 -0.0555595 0.540562 255 255 255
-0.144949 -0.0932548 0.562844 255 255 255
-0.144667 -0.0907986 0.561916 255 255 255
-0.283449 -0.0492473 0.602813 255 255 255
-0.195383 -0.0634062 0.547553 255 255 255
-0.129956 -0.0921431 0.56462 255 255 255
-0.128932 -0.0879958 0.563365 255 255 255
-0.0585634 -0.113331 0.578221 255 255 255
0.0661062 -0.147108 0.601192 255 255 255
-0.194449 -0.0576228 0.544441 255 255 255
-0.325025 -0.0202724 0.592593 255 255 255
-0.264198 -0.0336661 0.529619 255 255 255
-0.249904 -0.0365676 0.532513 255 255 255
-0.229669 -0.0414098 0.539781 255 255 255
-0.0162279 -0.0983518 0.578952 255 255 255
-0.251598 -0.0277075 0.529986 255 255 255
-0.0673334 -0.0730745 0.567082 255 255 255
-0.039229 -0.0886164 0.574194 255 255 255
-0.036092 -0.0864793 0.574955 255 255 255
-0.023369 -0.0901314 0.57658 255 255 255
-0.33775 0.0113869 0.592096 255 255 255
0.0240092 -0.0587657 0.584075 255 255 255
-0.256445 0.0193565 0.520694 255 255 255
-0.127078 -0.00410091 0.54454 255 255 255
-0.246631 0.0382946 0.590676 255 255 255
-0.0377684 0.00990924 0.547881 255 255 255
0.114962 -0.0036957 0.608866 255 255 255
-0.150616 0.0388529 0.6035 255 255 255
-0.0496384 0.0341516 0.542439 255 255 255
-0.0360032 0.026243 0.546287 255 255 255
-0.0403797 0.0285431 0.545038 255 255 255
-0.0403665 0.0285196 0.545056 255 255 255
0.112623 0.0250638 0.606893 255 255 255
0.128329 0.0232608 0.585853 255 255 255
-0.33949 0.0782085 0.565962 255 255 255
-0.0994372 0.0720867 0.52747 255 255 255
-0.335383 0.101013 0.55052 255 255 255
-0.34298 0.10528 0.549008 255 255 255
-0.347713 0.111822 0.546917 255 255 255
-0.144216 0.126592 0.57779 255 255 255
-0.108403 0.131523 0.507447 255 255 255
-0.108449 0.131525 0.507462 255 255 255
-0.338364 0.139537 0.547836 255 255 255
-0.123305 0.140165 0.51587 255 255 255
-0.130673 0.145664 0.511061 255 255 255
-0.342918 0.148982 0.54439 255 255 255
-0.343187 0.154109 0.543307 255 255 255
-0.333383 0.15035 0.545233 255 255 255
-0.142033 -0.0958914 0.563659 255 255 255
-0.053007 -0.119721 0.580349 255 255 255
-0.243085 -0.0526096 0.540938 255 255 255
-0.186754 -0.0713808 0.550427 255 255 255
-0.145925 -0.0711099 0.557401 255 255 255
-0.330059 -0.0159565 0.590982 255 255 255
-0.142817 -0.0658332 0.556576 255 255 255
-0.332317 0.00851986 0.584586 255 255 255
-0.306901 0.00704261 0.588001 255 255 255
-0.265346 0.00754004 0.587699 255 255 255
-0.128202 0.00320937 0.560594 255 255 255
-0.119143 -0.00332656 0.54308 255 255 255
-0.0803155 0.00123027 0.547562 255 255 255
-0.127948 0.0293828 0.603719 255 255 255
-0.288212 0.0818083 0.571691 255 255 255
0.114384 0.0686798 0.595271 255 255 255
-0.127584 0.0859836 0.58959 255 255 255
-0.319319 0.0999453 0.551318 255 255 255
-0.116545 0.0829094 0.522387 255 255 255
-0.044027 0.080149 0.531857 255 255 255
-0.336829 0.107171 0.548693 255 255 255
-0.154931 0.118078 0.591159 255 255 255
-0.300626 0.139418 0.551863 255 255 255
-0.0407411 0.136773 0.477577 255 255 255
-0.269114 0.133889 0.487228 255 255 255
-0.326312 -0.0311905 0.594826 255 255 255
-0.128514 -0.0848928 0.562767 255 255 255
-0.128627 -0.0849409 0.56264 255 255 255
-0.338665 -0.0239639 0.60234 255 255 255
-0.254307 0.0642484 0.58018 255 255 255
-0.330708 0.0946004 0.551187 255 255 255
-0.334935 0.105917 0.54891 255 255 255
-0.344459 0.111518 0.547092 255 255 255
-0.247948 0.106187 0.501221 255 255 255
-0.249069 0.111824 0.49583 255 255 255
-0.283931 0.139443 0.551729 255 255 255
-0.24671 0.145045 0.487694 255 255 255
-0.209602 -0.0655089 0.546356 255 255 255
-0.222002 -0.0413446 0.540459 255 255 255
-0.161578 0.0314479 0.619726 255 255 255
0.117589 -0.00594365 0.604248 255 255 255
-0.339922 0.0631562 0.569761 255 255 255
0.110295 0.0182573 0.611811 255 255 255
-0.104229 0.0647533 0.528594 255 255 255
-0.258294 0.0901025 0.572902 255 255 255
-0.115221 0.0769025 0.524127 255 255 255
-0.340899 0.094393 0.550175 255 255 255
-0.33682 0.099696 0.550671 255 255 255
-0.331551 -0.0244604 0.592882 255 255 255
-0.322515 -0.0255187 0.593407 255 255 255
-0.3315 0.00186918 0.586513 255 255 255
-0.257402 0.101122 0.570043 255 255 255
-0.319545 0.104865 0.550329 255 255 255
-0.342162 0.108648 0.548134 255 255 255
-0.125582 0.123803 0.554933 255 255 255
-0.252551 0.109812 0.496967 255 255 255
-0.299585 0.142545 0.550861 255 255 255
-0.0653334 -0.0904443 0.571335 255 255 255
-0.127276 -2.71844e-06 0.546099 255 255 255
-0.340726 0.04304 0.57474 255 255 255
-0.266068 0.0766015 0.575681 255 255 255
-0.260857 0.0782702 0.575477 255 255 255
-0.262624 0.100723 0.570469 255 255 255
-0.0358106 -0.196546 0.601558 255 255 255
0.0712433 -0.122754 0.594914 255 255 255
0.205583 -0.102624 0.607521 255 255 255
0.151299 -0.104257 0.601369 255 255 255
0.236941 -0.0777353 0.604999 255 255 255
0.17697 -0.0224843 0.584388 255 255 255
0.0132414 0.0194788 0.599846 255 255 255
0.013964 0.0355376 0.596312 255 255 255
0.0131724 0.0648657 0.588647 255 255 255
0.0131387 0.0697405 0.587442 255 255 255
0.196509 0.126743 0.545366 255 255 255
0.224244 0.131844 0.547344 255 255 255
0.248004 0.131718 0.550123 255 255 255
0.266174 0.155559 0.573548 255 255 255
-0.0865745 -0.229648 0.603478 255 255 255
0.126205 -0.0737925 0.589962 255 255 255
0.0088068 0.0263595 0.584499 255 255 255
0.264415 0.0517668 0.650039 255 255 255
0.247247 0.150456 0.545533 255 255 255
-0.13355 -0.0875658 0.562133 255 255 255
-0.0915575 -0.0555457 0.55906 255 255 255
0.173703 0.00895351 0.572763 255 255 255
0.253086 0.0100605 0.585157 255 255 255
0.00254571 -0.173065 0.60067 255 255 255
0.00254571 -0.173065 0.60067 255 255 255
-0.0208977 -0.163656 0.595568 255 255 255
-0.125369 -0.122059 0.572416 255 255 255
0.0274987 -0.0316564 0.604113 255 255 255
-0.180347 -0.0641421 0.548415 255 255 255
-0.100094 -0.072537 0.562978 255 255 255
0.0627895 -0.0995731 0.586838 255 255 255
0.152007 0.11447 0.547024 255 255 255
0.0545831 -0.150954 0.605128 255 255 255
-0.0852522 0.0801645 0.527042 255 255 255
0.185319 0.115817 0.540607 255 255 255
0.299924 -0.192067 0.641637 255 255 255
0.381463 0.0567081 0.658296 255 255 255
0.379093 0.101254 0.647263 255 255 255
-0.122593 0.0262381 0.533952 255 255 255
0.0784394 0.0167426 0.614554 255 255 255
-0.113545 0.0893027 0.520974 255 255 255
0.0165081 -0.0517477 0.583221 255 255 255
-0.247688 -0.00597132 0.528508 255 255 255
0.0747562 0.0186257 0.615126 255 255 255
0.0747562 0.0186257 0.615126 255 255 255
-0.119907 0.0610429 0.547996 255 255 255
-0.000717638 0.133473 0.49584 255 255 255
-0.0318782 0.1081 0.526597 255 255 255
-0.158643 -0.0794679 0.556262 255 255 255
-0.0403189 0.040855 0.541895 255 255 255
0.0567962 -0.111833 0.591665 255 255 255
-0.0275868 -0.0763645 0.572638 255 255 255
0.0467777 -0.00710873 0.61583 255 255 255
-0.023239 0.0219209 0.550355 255 255 255
0.0911566 -0.151372 0.602701 255 255 255
-0.11349 -0.0800115 0.563226 255 255 255
-0.0969628 -0.0867808 0.567128 255 255 255
-0.0972172 -0.0867103 0.566698 255 255 255
0.374605 -0.16664 0.647024 255 255 255
0.374495 -0.166601 0.646958 255 255 255
0.0665534 -0.0504906 0.607734 255 255 255
-0.131464 -0.00463905 0.563584 255 255 255
-0.261576 0.0274558 0.519776 255 255 255
-0.25815 0.0267739 0.520092 255 255 255
-0.340184 0.0583004 0.571185 255 255 255
0.375634 0.015095 0.600185 255 255 255
0.136768 0.0389352 0.583087 255 255 255
-0.3423 0.0783272 0.566222 255 255 255
-0.0984734 0.0648255 0.529062 255 255 255
0.15493 0.0829174 0.555294 255 255 255
0.153891 0.0849617 0.556091 255 255 255
0.153924 0.0849661 0.556136 255 255 255
0.154005 0.0881497 0.555901 255 255 255
0.154416 0.0917208 0.552946 255 255 255
-0.348879 0.103137 0.548797 255 255 255
-0.317928 0.107799 0.550647 255 255 255
0.115361 0.11206 0.577755 255 255 255
0.148553 0.11392 0.547745 255 255 255
-0.318774 0.134859 0.550344 255 255 255
-0.0235003 0.13234 0.517333 255 255 255
-0.0670146 0.1426 0.509806 255 255 255
0.07846 0.141132 0.491921 255 255 255
-0.309497 -0.0418027 0.599578 255 255 255
0.0240392 -0.129795 0.592729 255 255 255
0.0246932 -0.117531 0.588984 255 255 255
0.090248 -0.129794 0.601106 255 255 255
-0.113914 -0.0754087 0.562147 255 255 255
0.106106 -0.0657612 0.591978 255 255 255
0.202364 -0.0865077 0.602748 255 255 255
-0.131848 -0.0161053 0.546815 255 255 255
-0.26273 0.0473709 0.583197 255 255 255
-0.0403746 0.034345 0.543808 255 255 255
0.160395 0.0192259 0.570644 255 255 255
0.144263 0.0583368 0.571549 255 255 255
-0.341592 0.106838 0.548685 255 255 255
0.148453 0.118139 0.546468 255 255 255
0.147748 0.123925 0.540598 255 255 255
-0.0643683 0.126008 0.513566 255 255 255
-0.0156629 0.14115 0.468887 255 255 255
-0.105792 -0.0921297 0.567475 255 255 255
0.101025 -0.0682234 0.592107 255 255 255
-0.267139 0.014377 0.519304 255 255 255
-0.261623 0.0317913 0.522993 255 255 255
-0.320532 0.086181 0.567016 255 255 255
0.168166 0.085401 0.55411 255 255 255
-0.0591122 0.115659 0.519237 255 255 255
0.238198 0.116969 0.556892 255 255 255
0.157175 0.135942 0.521311 255 255 255
-0.113036 -0.100081 0.568694 255 255 255
-0.125559 -0.0772717 0.561501 255 255 255
0.160247 0.00529217 0.575867 255 255 255
0.131027 0.0944005 0.572356 255 255 255
0.15134 0.0931983 0.55504 255 255 255
-0.334514 0.108225 0.548317 255 255 255
0.145201 0.1287 0.541508 255 255 255
0.123153 -0.0331933 0.596588 255 255 255
0.133365 0.133728 0.539734 255 255 255
-0.164892 -0.064008 0.551129 255 255 255
0.141924 0.126727 0.544112 255 255 255
0.152727 0.0993087 0.553339 255 255 255
0.230908 0.0732995 0.567207 255 255 255
0.0661807 0.138253 0.49126 255 255 255
-0.0775675 0.135572 0.509573 255 255 255
0.018155 0.0149518 0.607859 255 255 255
0.0443084 -0.153291 0.597903 255 255 255
0.0460301 -0.150319 0.601144 255 255 255
0.319785 -0.0639581 0.609437 255 255 255
0.0847602 -0.105021 0.591706 255 255 255
0.25524 -0.0503571 0.600531 255 255 255
0.266481 -0.0467592 0.601175 255 255 255
0.300523 -0.0390729 0.599368 255 255 255
-0.00879774 -0.108805 0.582783 255 255 255
0.021832 -0.0870954 0.579235 255 255 255
0.0165006 -0.0844477 0.577869 255 255 255
0.0244891 -0.0879778 0.57956 255 255 255
0.149332 -0.0571947 0.585082 255 255 255
-0.0190589 -0.0510943 0.565305 255 255 255
0.0363941 -0.0288906 0.614759 255 255 255
0.0455959 -0.0316113 0.61742 255 255 255
0.0243068 -0.0182686 0.611343 255 255 255
0.0276533 -0.0058117 0.614796 255 255 255
0.191917 0.0122717 0.577465 255 255 255
0.0130044 0.0143949 0.601157 255 255 255
-0.00150523 0.0272162 0.577457 255 255 255
0.0131911 0.0242995 0.598671 255 255 255
0.0133359 0.0292954 0.597448 255 255 255
0.0134025 0.0446059 0.593441 255 255 255
0.0161322 0.0504633 0.600248 255 255 255
-0.0247548 0.0510741 0.540406 255 255 255
0.235835 0.0758799 0.566932 255 255 255
0.160505 0.0770081 0.557339 255 255 255
0.201301 0.0891751 0.559056 255 255 255
0.199737 0.124184 0.54812 255 255 255
0.243117 0.12559 0.55297 255 255 255
0.249704 0.141526 0.548429 255 255 255
0.156642 0.144067 0.489478 255 255 255
0.243673 0.157216 0.543598 255 255 255
0.290859 0.158996 0.564256 255 255 255
0.196025 -0.088915 0.603066 255 255 255
0.034943 -0.119065 0.589258 255 255 255
0.13319 -0.0718659 0.587999 255 255 255
-0.0100345 -0.0639331 0.569544 255 255 255
0.0322454 -0.0573873 0.594194 255 255 255
0.0747236 -0.00257971 0.621896 255 255 255
0.269842 0.0541436 0.66118 255 255 255
-0.101297 0.0150492 0.538278 255 255 255
0.242957 0.0770224 0.567299 255 255 255
0.244156 0.101291 0.630852 255 255 255
0.00488504 0.121466 0.553827 255 255 255
0.195283 0.126036 0.546094 255 255 255
0.203176 0.124466 0.548541 255 255 255
0.0983594 0.130191 0.532489 255 255 255
0.119292 0.146376 0.484454 255 255 255
-0.121257 -0.205967 0.594383 255 255 255
0.0619948 -0.0823226 0.587062 255 255 255
-0.160515 -0.119822 0.567163 255 255 255
0.24757 -0.0289802 0.594295 255 255 255
-0.015733 -0.03246 0.563825 255 255 255
-0.0205602 -0.0135307 0.559489 255 255 255
0.246836 0.0467526 0.573138 255 255 255
-0.00222309 0.0300035 0.576836 255 255 255
-0.0238779 0.038632 0.546355 255 255 255
0.0169895 0.04702 0.599895 255 255 255
0.187625 0.120271 0.549489 255 255 255
-0.0172284 0.132691 0.494077 255 255 255
0.303059 0.155111 0.578003 255 255 255
0.113732 -0.0815143 0.590698 255 255 255
0.0327643 -0.0331043 0.61175 255 255 255
-0.0199747 0.0390002 0.549818 255 255 255
0.0146503 0.0566962 0.593977 255 255 255
0.0108006 0.123367 0.560163 255 255 255
-0.013521 0.130101 0.518061 255 255 255
0.280367 0.153396 0.575733 255 255 255
0.276283 0.156304 0.563023 255 255 255
0.0861425 -0.100051 0.590948 255 255 255
-0.154392 -0.0622726 0.554335 255 255 255
0.0225571 -0.0222442 0.609483 255 255 255
0.201811 -0.136792 0.615542 255 255 255
0.0815359 -0.0693406 0.594558 255 255 255
0.19018 0.101595 0.554893 255 255 255
0.0431565 -0.218937 0.615697 255 255 255
0.0798269 -0.176616 0.60714 255 255 255
-0.111286 -0.136547 0.577387 255 255 255
-0.152601 -0.129588 0.568087 255 255 255
-0.234362 -0.10108 0.553913 255 255 255
0.0275819 -0.0828694 0.580616 255 255 255
0.112067 -0.0249352 0.606659 255 255 255
-0.140024 0.146006 0.503783 255 255 255
-0.391869 -0.0682633 0.596643 255 255 255
-0.391485 0.13662 0.525693 255 255 255
-0.244821 -0.102611 0.552761 255 255 255
-0.387268 0.0882657 0.542528 255 255 255
-0.274158 0.0968285 0.569428 255 255 255
-0.264915 0.0439783 0.583451 255 255 255
-0.185398 0.142405 0.510642 255 255 255
-0.369828 0.0332865 0.574509 255 255 255
-0.00733015 -0.120126 0.586335 255 255 255
-0.157275 -0.0573735 0.549107 255 255 255
-0.0618769 0.0288951 0.542677 255 255 255
-0.347562 -0.0863344 0.606409 255 255 255
-0.298121 -0.0854783 0.612065 255 255 255
-0.296915 -0.0594562 0.605446 255 255 255
-0.335874 -0.0470869 0.598232 255 255 255
0.0981041 0.015212 0.615872 255 255 255
0.254027 0.144857 0.547784 255 255 255
0.241384 -0.128707 0.618328 255 255 255
0.149091 -0.0694111 0.592142 255 255 255
0.0757621 -0.178453 0.606522 255 255 255
0.126909 -0.139407 0.607269 255 255 255
0.180981 -0.122408 0.609591 255 255 255
0.0339137 -0.093402 0.581607 255 255 255
0.462791 -0.0224539 0.687572 255 255 255
0.186049 0.101504 0.554602 255 255 255
0.205859 0.0731055 0.563863 255 255 255
0.231936 0.0928203 0.562138 255 255 255
0.231454 -0.145345 0.621291 255 255 255
-0.034782 -0.130973 0.585427 255 255 255
0.0872717 -0.0848419 0.588804 255 255 255
-0.0492032 -0.0848818 0.572843 255 255 255
0.196431 0.12966 0.544698 255 255 255
0.19737 0.149808 0.539161 255 255 255
0.23337 0.150451 0.543939 255 255 255
0.133146 0.143329 0.486686 255 255 255
0.185674 0.00818268 0.577723 255 255 255
-0.10094 -0.00868698 0.546969 255 255 255
0.126694 0.107606 0.572324 255 255 255
0.102692 0.00133031 0.619876 255 255 255
-0.122578 0.0262715 0.534146 255 255 255
0.0607038 -0.0314569 0.622484 255 255 255
-0.103519 0.0328721 0.536028 255 255 255
-0.262813 0.104285 0.568788 255 255 255
-0.155188 0.127084 0.587674 255 255 255
0.0694028 -0.0045025 0.619166 255 255 255
-0.0627175 0.111522 0.521696 255 255 255
-0.111115 0.133201 0.506128 255 255 255
-0.245226 0.10348 0.503244 255 255 255
-0.262183 0.0928935 0.572408 255 255 255
-0.0720698 -0.0878073 0.569975 255 255 255
0.250345 0.0832451 0.572031 255 255 255
0.251622 0.145846 0.546987 255 255 255
0.258127 0.0333115 0.582109 255 255 255
0.393111 0.0180693 0.599984 255 255 255
-0.0509099 0.118221 0.511763 255 255 255
0.0470967 -0.0298196 0.620138 255 255 255
0.0481943 0.0176625 0.612434 255 255 255
-0.0266722 0.0319349 0.546428 255 255 255
-0.0266722 0.0319349 0.546428 255 255 255
-0.100858 0.130886 0.508527 255 255 255
-0.0786368 0.10923 0.52049 255 255 255
0.238263 0.128487 0.55048 255 255 255
-0.0740571 -0.148069 0.584941 255 255 255
-0.209927 -0.113142 0.560182 255 255 255
-0.24459 -0.0991383 0.552578 255 255 255
-0.356675 0.0625902 0.567946 255 255 255
-0.30151 -0.060075 0.604956 255 255 255
