ply
format ascii 1.0
element vertex 1073
property float x
property float y
property float z
property uchar red
property uchar green
property uchar blue
end_header
-0.00712078 -0.00175087 0.0577484 255 255 255
-0.00545798 -0.00196868 0.0581133 255 255 255
-0.0059401 -0.00154201 0.0579625 255 255 255
-0.00381892 -0.00193787 0.0584577 255 255 255
-0.00358956 -0.00199828 0.0585258 255 255 255
-0.00427949 -0.00156989 0.0582896 255 255 255
-0.00320096 -0.0017115 0.0585773 255 255 255
0.00106852 -0.00118145 0.059376 255 255 255
0.00130222 -0.00176467 0.0595072 255 255 255
0.00130222 -0.00176467 0.0595072 255 255 255
0.00179683 -0.00202113 0.0596496 255 255 255
0.00177872 -0.00179641 0.0595918 255 255 255
0.00177944 -0.00179855 0.0595863 255 255 255
0.001538 -0.00157429 0.0595141 255 255 255
0.001538 -0.00157429 0.0595141 255 255 255
0.00299507 -0.00169221 0.0598339 255 255 255
0.00228246 -0.00134562 0.0596235 255 255 255
0.00371387 -0.00202514 0.0600479 255 255 255
0.00324268 -0.00158907 0.0598854 255 255 255
0.0032455 -0.00134753 0.05984 255 255 255
0.00373693 -0.00118685 0.0599516 255 255 255
0.0046808 -0.00200909 0.0602486 255 255 255
0.0042192 -0.00120749 0.0600328 255 255 255
0.00514454 -0.00198364 0.0603404 255 255 255
-0.0149688 -0.000964308 0.0563406 255 255 255
-0.0139955 -0.000545701 0.0564801 255 255 255
-0.0120964 -0.000998363 0.0568486 255 255 255
-0.0077873 -0.000331858 0.0574631 255 255 255
-0.0073308 -0.000285249 0.0575533 255 255 255
-0.00589805 -0.000750187 0.0578619 255 255 255
-0.00542934 -0.000961153 0.0579948 255 255 255
-0.00543607 -0.00074481 0.0579669 255 255 255
-0.00386944 -0.000450028 0.0582746 255 255 255
-0.00378138 -0.000599429 0.0583148 255 255 255
-0.00378138 -0.000599429 0.0583148 255 255 255
-0.00357087 -0.000973986 0.0583997 255 255 255
-0.0027351 -0.000737122 0.058556 255 255 255
-0.00269307 -0.000486725 0.058537 255 255 255
0.000437832 -0.000923129 0.0592158 255 255 255
0.000697031 -0.00107235 0.0592849 255 255 255
0.000562737 -0.000573913 0.0591861 255 255 255
0.000123104 -0.000181669 0.0590226 255 255 255
0.0017966 -0.000978606 0.0594958 255 255 255
0.00253743 -0.0011387 0.0597081 255 255 255
0.00231502 -0.000532304 0.0595719 255 255 255
0.00398232 -0.000774619 0.0599337 255 255 255
0.00422514 -0.00079589 0.0600007 255 255 255
0.00462734 -0.00104076 0.0600974 255 255 255
0.00398428 -0.000444633 0.0598943 255 255 255
-0.0152604 0.000731549 0.0561451 255 255 255
-0.0152657 0.000739426 0.0561698 255 255 255
-0.0148398 7.5045e-06 0.056277 255 255 255
-0.0135322 0.000303246 0.0564636 255 255 255
-0.0142555 0.000475621 0.0563255 255 255 255
-0.0140839 0.00071087 0.0563296 255 255 255
-0.0134029 0.000646376 0.0564632 255 255 255
-0.0134029 0.000646376 0.0564632 255 255 255
-0.0131396 0.000627688 0.0565148 255 255 255
-0.0118662 0.000321526 0.0567614 255 255 255
-0.0120101 0.000659205 0.0566915 255 255 255
-0.00998033 0.000498592 0.057001 255 255 255
-0.00978259 0.000511626 0.0570183 255 255 255
-0.0090575 0.000651913 0.0571421 255 255 255
-0.00879306 0.00043377 0.0571971 255 255 255
-0.00200926 0.000439964 0.0585116 255 255 255
-0.00105091 -0.000105855 0.0587704 255 255 255
-0.00105221 -0.000105747 0.0587712 255 255 255
0.00176998 0.000603955 0.0593149 255 255 255
0.00268661 0.000726622 0.0594988 255 255 255
0.00268661 0.000726622 0.0594988 255 255 255
0.0035002 0.000190085 0.0597291 255 255 255
0.00574031 0.000103464 0.0602388 255 255 255
0.00574031 0.000103464 0.0602388 255 255 255
0.00505306 0.000394554 0.0600451 255 255 255
0.00597834 0.000697664 0.0601835 255 255 255
-0.0156168 0.00120159 0.056061 255 255 255
-0.0139675 0.00112751 0.0563406 255 255 255
-0.0134417 0.000892966 0.0564605 255 255 255
-0.0131479 0.00153314 0.0564233 255 255 255
-0.0131479 0.00153314 0.0564233 255 255 255
-0.0117046 0.00130085 0.0566839 255 255 255
-0.0119467 0.0017168 0.0566181 255 255 255
-0.0119467 0.0017168 0.0566181 255 255 255
-0.00947909 0.000918116 0.0570191 255 255 255
-0.00952297 0.00135006 0.0569856 255 255 255
-0.00848367 0.000963603 0.0572271 255 255 255
-0.00852856 0.00120531 0.0571769 255 255 255
-0.00175494 0.00104478 0.0584742 255 255 255
-0.00175479 0.00104266 0.0584715 255 255 255
0.0024194 0.00142179 0.0593153 255 255 255
0.00289532 0.00179367 0.0593959 255 255 255
0.00314346 0.0017694 0.0594543 255 255 255
0.00314346 0.0017694 0.0594543 255 255 255
0.00470724 0.000927183 0.0599003 255 255 255
0.00530255 0.00128732 0.0599528 255 255 255
0.00553944 0.00122947 0.0600308 255 255 255
-0.0153757 0.00253839 0.056001 255 255 255
-0.0140652 0.00196196 0.0562347 255 255 255
-0.0130879 0.00179045 0.0563981 255 255 255
-0.0130879 0.00179045 0.0563981 255 255 255
-0.0122048 0.00197515 0.0565328 255 255 255
-0.0122048 0.00197515 0.0565328 255 255 255
-0.0119618 0.00200772 0.0565779 255 255 255
-0.0116324 0.00199145 0.0566259 255 255 255
-0.0093731 0.00193037 0.0569627 255 255 255
-0.00887052 0.00192261 0.0570254 255 255 255
-0.00876013 0.00203192 0.0570346 255 255 255
-0.00828015 0.00263944 0.0570922 255 255 255
-0.00797301 0.00216546 0.0571762 255 255 255
-0.00785632 0.00230434 0.0571756 255 255 255
-0.000431333 0.00250575 0.0585659 255 255 255
0.000868558 0.00247717 0.0588414 255 255 255
0.00379154 0.00207971 0.0595391 255 255 255
0.00388621 0.00196751 0.0595809 255 255 255
0.00404199 0.00212113 0.0595758 255 255 255
0.00453443 0.00247687 0.059645 255 255 255
-0.0159702 0.00330665 0.0557885 255 255 255
-0.0119088 0.00321647 0.0564695 255 255 255
-0.0117297 0.00335364 0.056484 255 255 255
-0.00730158 0.00299677 0.0572416 255 255 255
0.000865648 0.00347656 0.0587395 255 255 255
0.00464446 0.0032127 0.0595694 255 255 255
0.00612389 0.00289947 0.0599422 255 255 255
0.00060107 0.00404137 0.0586313 255 255 255
0.000600348 0.00403934 0.0586272 255 255 255
0.000639488 0.00459316 0.0585853 255 255 255
0.00176627 0.00411869 0.0588462 255 255 255
0.00222981 0.00412648 0.0589361 255 255 255
0.00200204 0.00444064 0.0588635 255 255 255
-0.0111563 0.00501672 0.0563914 255 255 255
-0.00728816 0.00582101 0.0569536 255 255 255
0.00583263 0.00692655 0.0594316 255 255 255
0.00587331 0.00731501 0.0594338 255 255 255
-0.0026291 0.00815512 0.0576498 255 255 255
0.000676166 0.00750215 0.0583231 255 255 255
3.65578e-05 0.00915962 0.0579831 255 255 255
0.00362908 0.0108552 0.0585389 255 255 255
-0.00790907 0.0137585 0.0562559 255 255 255
0.00625789 0.0153644 0.0586443 255 255 255
-0.0126081 0.0151736 0.0554431 255 255 255
-0.000733653 0.0165739 0.0572912 255 255 255
0.00555982 0.0179288 0.0583734 255 255 255
-0.0138829 0.0172355 0.0551445 255 255 255
0.00649634 0.0183846 0.0582675 255 255 255
-0.015367 -0.00831535 0.0568262 255 255 255
-0.0129214 -0.00877 0.0573682 255 255 255
-0.0129282 -0.00832183 0.0572914 255 255 255
-0.0126362 -0.00878518 0.0574352 255 255 255
-0.00712413 -0.00888555 0.0585334 255 255 255
-0.00402426 -0.00883224 0.0591082 255 255 255
-0.00386661 -0.00884373 0.0591763 255 255 255
-0.00439889 -0.00870417 0.0590245 255 255 255
-0.00229351 -0.0088457 0.059487 255 255 255
-0.000504231 -0.00868711 0.0598085 255 255 255
0.00317213 -0.00865986 0.0605678 255 255 255
0.00537513 -0.00853547 0.0610316 255 255 255
0.00658602 -0.00847896 0.0610015 255 255 255
-0.0160436 -0.00771532 0.0563614 255 255 255
-0.00937588 -0.00729209 0.0578855 255 255 255
-0.00885675 -0.00728526 0.0579643 255 255 255
-0.00742769 -0.0075067 0.0581115 255 255 255
-0.00417083 -0.00810224 0.0590447 255 255 255
-0.000503098 -0.00831391 0.0597596 255 255 255
0.00135364 -0.00835949 0.0601913 255 255 255
0.00163901 -0.00817764 0.0601912 255 255 255
0.00252177 -0.0082591 0.0603821 255 255 255
0.00378075 -0.00838174 0.0606569 255 255 255
0.00440379 -0.00825487 0.0607524 255 255 255
0.00439587 -0.00825812 0.0607439 255 255 255
0.00742996 -0.00832485 0.0611973 255 255 255
0.00829817 -0.00845275 0.0613655 255 255 255
0.00916572 -0.00831587 0.0615345 255 255 255
-0.00967825 -0.00672538 0.0577664 255 255 255
-0.00967825 -0.00672538 0.0577664 255 255 255
-0.00966481 -0.00650134 0.0577195 255 255 255
-0.00941374 -0.006292 0.057762 255 255 255
-0.0087887 -0.00609679 0.0578421 255 255 255
-0.00612472 -0.00632644 0.058408 255 255 255
-0.00612472 -0.00632644 0.058408 255 255 255
-0.00112089 -0.00684139 0.059569 255 255 255
-0.000473129 -0.00672721 0.059645 255 255 255
0.00198968 -0.00688572 0.0602133 255 255 255
0.00224426 -0.00702049 0.0602713 255 255 255
0.0062217 -0.0066286 0.060839 255 255 255
-0.012128 -0.00512614 0.0571764 255 255 255
-0.0102876 -0.00568284 0.0575641 255 255 255
-0.00542676 -0.00563806 0.0584702 255 255 255
-0.00542676 -0.00563806 0.0584702 255 255 255
-0.00422998 -0.00527553 0.058755 255 255 255
-0.00422998 -0.00527553 0.058755 255 255 255
-0.000191276 -0.00547026 0.0596505 255 255 255
0.000747337 -0.00531657 0.0597914 255 255 255
0.00166353 -0.00581024 0.0600805 255 255 255
0.00195964 -0.00623655 0.0601528 255 255 255
0.00196513 -0.00592737 0.0600981 255 255 255
0.00471416 -0.00600687 0.0606243 255 255 255
-0.0131835 -0.00486667 0.0569625 255 255 255
-0.00986436 -0.00430615 0.0575425 255 255 255
-0.00986436 -0.00430615 0.0575425 255 255 255
-0.00989402 -0.00409652 0.0574987 255 255 255
-0.00563742 -0.00444175 0.0583256 255 255 255
-0.00362882 -0.00466882 0.0588158 255 255 255
0.00134031 -0.00487798 0.0598812 255 255 255
-0.0152529 -0.00365798 0.0565132 255 255 255
-0.0140462 -0.00319512 0.0566643 255 255 255
-0.0140462 -0.00319512 0.0566643 255 255 255
-0.0135948 -0.00344015 0.0567986 255 255 255
-0.0121593 -0.00360492 0.0570421 255 255 255
-0.0116851 -0.00360642 0.0571196 255 255 255
-0.0116913 -0.00360455 0.0571383 255 255 255
-0.0086072 -0.00393553 0.057703 255 255 255
-0.00302715 -0.00413703 0.0589102 255 255 255
0.00194159 -0.00406965 0.0599509 255 255 255
0.00173719 -0.00364244 0.05984 255 255 255
0.00334276 -0.00403911 0.0602062 255 255 255
0.00462852 -0.00382251 0.0604231 255 255 255
-0.0152446 -0.00283129 0.0564934 255 255 255
-0.01477 -0.00282998 0.056542 255 255 255
-0.0140618 -0.00274587 0.0566375 255 255 255
-0.0118875 -0.00262598 0.0570156 255 255 255
-0.0116697 -0.00273167 0.0570742 255 255 255
-0.00850661 -0.00238194 0.0575518 255 255 255
-0.00688538 -0.00233535 0.0578558 255 255 255
-0.00592822 -0.0026195 0.0581021 255 255 255
-0.00547915 -0.00275266 0.0581774 255 255 255
-0.00430434 -0.00235911 0.0583773 255 255 255
-0.00199477 -0.00246117 0.058936 255 255 255
-0.00176957 -0.00216427 0.0589833 255 255 255
-0.00041622 -0.00299453 0.0593129 255 255 255
-0.000566201 -0.0028446 0.0592681 255 255 255
0.000178399 -0.00277351 0.0594135 255 255 255
-0.0118527 -0.00115183 0.0568718 255 255 255
-0.0118532 -0.00114848 0.0568763 255 255 255
-0.00852004 -0.00196292 0.0574964 255 255 255
-0.00306427 -0.00159958 0.0585859 255 255 255
-0.00280739 -0.00162065 0.0586489 255 255 255
-0.00129961 -0.00125363 0.0588688 255 255 255
-8.7012e-05 -0.0019133 0.0592342 255 255 255
0.00154473 -0.00182295 0.059583 255 255 255
-0.0121457 -0.000344645 0.0567602 255 255 255
-0.0099278 -0.00108344 0.0571306 255 255 255
-0.00871685 -0.000257121 0.0572822 255 255 255
-0.00781027 -0.000974914 0.0575221 255 255 255
-0.00734335 -0.00107537 0.0576312 255 255 255
0.000269557 -0.000564651 0.0591327 255 255 255
0.00180889 -0.000353255 0.0594425 255 255 255
0.00275727 -0.000393572 0.059653 255 255 255
0.00468514 -0.0001843 0.0600172 255 255 255
0.00468722 -0.000185112 0.0600164 255 255 255
-0.0154808 -5.86883e-05 0.0561783 255 255 255
-0.0147202 0.000131844 0.0562774 255 255 255
-0.0150185 0.000328483 0.0562699 255 255 255
-0.0121321 0.000532524 0.056688 255 255 255
-0.0121308 0.000533192 0.0566871 255 255 255
-0.0115029 3.26945e-05 0.0568054 255 255 255
-0.00945836 0.000767902 0.0570423 255 255 255
-0.00807058 0.000770209 0.0573241 255 255 255
-0.00448598 7.98464e-05 0.0580574 255 255 255
-0.000765047 0.000709036 0.0586764 255 255 255
-0.000581163 0.000829744 0.0587303 255 255 255
0.000891489 0.000805296 0.0590808 255 255 255
0.00447358 0.00036813 0.0599307 255 255 255
0.00468728 0.000553097 0.0599299 255 255 255
0.00551664 0.000599519 0.0600796 255 255 255
-0.0150373 0.000869922 0.0562107 255 255 255
-0.0135533 0.00077009 0.0564326 255 255 255
-0.0129555 0.0011827 0.0565066 255 255 255
-0.0101804 0.00114544 0.0568959 255 255 255
-0.0090412 0.000956465 0.0571025 255 255 255
-0.00878564 0.00122896 0.0571171 255 255 255
-0.00862959 0.00167899 0.057104 255 255 255
-0.00204617 0.00160894 0.0584112 255 255 255
-0.00139839 0.000998187 0.0585394 255 255 255
3.27395e-05 0.00115216 0.0588356 255 255 255
-0.000799848 0.00155741 0.0585686 255 255 255
-0.000798464 0.00155794 0.0585694 255 255 255
-0.000635232 0.00170657 0.058612 255 255 255
0.000290464 0.00120401 0.0588799 255 255 255
0.000288475 0.00146561 0.058819 255 255 255
0.000314171 0.00173859 0.0588297 255 255 255
0.00331342 0.00165813 0.0595288 255 255 255
0.00513188 0.00146161 0.0599026 255 255 255
-0.0151909 0.00194127 0.0560889 255 255 255
-0.0149514 0.00173306 0.0561157 255 255 255
-0.0145215 0.00204042 0.0561601 255 255 255
-0.0107226 0.00185672 0.0567742 255 255 255
-0.00831407 0.00194928 0.0571527 255 255 255
-0.00739178 0.00227616 0.0573103 255 255 255
-0.00142579 0.00212006 0.0584223 255 255 255
-0.000899338 0.00253262 0.0584652 255 255 255
0.00302849 0.0024924 0.0593332 255 255 255
0.00292746 0.00262593 0.0592853 255 255 255
0.00420299 0.00227247 0.0596126 255 255 255
0.00554454 0.00190261 0.0599399 255 255 255
0.00547927 0.00225569 0.0599023 255 255 255
0.00564376 0.00237861 0.0599303 255 255 255
-0.0135998 0.00335402 0.0561859 255 255 255
-0.0109332 0.00269267 0.056649 255 255 255
0.001417 0.00346189 0.0588484 255 255 255
0.00409888 0.002858 0.0595223 255 255 255
0.00439412 0.00315422 0.0595219 255 255 255
0.00210868 0.00399876 0.0589452 255 255 255
0.00340641 0.00434435 0.0592142 255 255 255
-0.0022938 0.00530485 0.0579541 255 255 255
-3.46158e-05 0.00546109 0.0583589 255 255 255
-0.000376491 0.00598942 0.058259 255 255 255
0.00519627 0.00597699 0.059417 255 255 255
0.00504344 0.00614878 0.059362 255 255 255
0.00513195 0.00639154 0.05938 255 255 255
0.00597291 0.00631518 0.0595693 255 255 255
-0.00754121 0.00654663 0.0568569 255 255 255
-0.00154033 0.00685133 0.057974 255 255 255
-0.0119781 0.00736374 0.0561193 255 255 255
0.00481335 0.00800994 0.0591232 255 255 255
0.00465388 0.00845541 0.0590143 255 255 255
0.00487803 0.00828595 0.0591309 255 255 255
0.00487562 0.00828679 0.0591327 255 255 255
-0.00745057 0.00831601 0.0567475 255 255 255
-0.00334079 0.00839828 0.0574441 255 255 255
0.00226307 0.00905108 0.0584588 255 255 255
0.00341391 0.00918237 0.0586793 255 255 255
0.0041584 0.00929183 0.0588284 255 255 255
0.00451934 0.00872541 0.0589775 255 255 255
0.00600215 0.00897212 0.0592396 255 255 255
-0.0102379 0.00924134 0.0562767 255 255 255
0.00460511 0.00946891 0.0589265 255 255 255
-0.00730031 0.0105992 0.0566333 255 255 255
-4.61755e-05 0.01071 0.05783 255 255 255
0.00346047 0.0117418 0.0584073 255 255 255
0.00391674 0.0122559 0.058468 255 255 255
0.00391674 0.0122559 0.058468 255 255 255
0.00374213 0.0124939 0.0584003 255 255 255
0.00456887 0.0128672 0.0585936 255 255 255
-0.00295339 0.012964 0.0571406 255 255 255
-0.000767727 0.0132504 0.0574894 255 255 255
-0.00190297 0.0139391 0.0572886 255 255 255
0.00310694 0.0144885 0.0581536 255 255 255
-0.00569901 0.0149811 0.0565698 255 255 255
0.00376237 0.0147484 0.0582192 255 255 255
-0.00972424 0.0155441 0.055873 255 255 255
-0.00912289 0.0153996 0.0560078 255 255 255
-0.00658679 0.0156015 0.05636 255 255 255
-0.00633198 0.0154457 0.056382 255 255 255
-0.00071291 0.0159203 0.0573276 255 255 255
0.00231837 0.016111 0.057874 255 255 255
-0.00451292 0.0163061 0.0566747 255 255 255
-0.00194074 0.0164348 0.0570846 255 255 255
0.00436179 0.0167308 0.0582141 255 255 255
0.00464692 0.0168851 0.0582404 255 255 255
-0.0121591 0.0165866 0.0554505 255 255 255
-0.0116921 0.0164611 0.055519 255 255 255
-0.00657284 0.0169033 0.0562212 255 255 255
-0.00704342 0.0173182 0.0561525 255 255 255
-0.00474988 0.0167988 0.0565819 255 255 255
-0.00345278 0.0168261 0.0567952 255 255 255
0.00482648 0.0172708 0.0583327 255 255 255
0.00499902 0.0179016 0.0582809 255 255 255
-0.015153 -0.00827565 0.0568526 255 255 255
-0.0140417 -0.00853058 0.0571299 255 255 255
-0.013728 -0.00850369 0.0572627 255 255 255
-0.014255 -0.00833492 0.0570898 255 255 255
-0.0142518 -0.00833368 0.0570875 255 255 255
-0.0138654 -0.00831341 0.0571676 255 255 255
-0.0129049 -0.0085647 0.0573538 255 255 255
-0.0135699 -0.00835677 0.0572602 255 255 255
-0.0133844 -0.00851404 0.0572712 255 255 255
-0.0111186 -0.00827097 0.0576229 255 255 255
-0.00928402 -0.00863254 0.0580492 255 255 255
-0.00830171 -0.00828229 0.0582303 255 255 255
-0.00830171 -0.00828229 0.0582303 255 255 255
-0.00732687 -0.00892765 0.0584539 255 255 255
-0.00668279 -0.00903511 0.0585904 255 255 255
-0.00538023 -0.00829961 0.0588246 255 255 255
-0.00306115 -0.00867916 0.0592823 255 255 255
-0.00306115 -0.00867916 0.0592823 255 255 255
-0.00241335 -0.00845388 0.0593919 255 255 255
0.00103269 -0.00856393 0.0601452 255 255 255
-0.0127576 -0.00724251 0.057272 255 255 255
8.72878e-05 -0.00835863 0.0599178 255 255 255
0.000722541 -0.00807435 0.060071 255 255 255
0.00635521 -0.00768849 0.0603431 255 255 255
-0.0123813 -0.00652942 0.0572508 255 255 255
-0.0123813 -0.00652942 0.0572508 255 255 255
-0.0125449 -0.0063578 0.057188 255 255 255
-0.00999246 -0.00683472 0.0577083 255 255 255
-0.00599845 -0.00612873 0.0584186 255 255 255
-0.00343195 -0.00654087 0.0590673 255 255 255
-0.000173041 -0.00663395 0.0597453 255 255 255
0.00165073 -0.00662032 0.0601174 255 255 255
-0.0127971 -0.00532975 0.0571228 255 255 255
-0.0100911 -0.00578218 0.0575916 255 255 255
-0.00985647 -0.00515043 0.0575902 255 255 255
-0.00107995 -0.00556013 0.0594245 255 255 255
0.0010507 -0.00547909 0.0599217 255 255 255
0.00429259 -0.0055765 0.0605811 255 255 255
-0.0124423 -0.00500411 0.0571709 255 255 255
-0.0103792 -0.00431526 0.0573945 255 255 255
-0.00694864 -0.00434759 0.0580189 255 255 255
-0.00597543 -0.00454026 0.0582303 255 255 255
-0.00478996 -0.00470315 0.0585294 255 255 255
-0.00270341 -0.00452255 0.0590627 255 255 255
-0.0023569 -0.00425948 0.0590912 255 255 255
0.00539095 -0.00475275 0.0606582 255 255 255
-0.0116882 -0.0039823 0.0571675 255 255 255
-0.00398902 -0.00407893 0.058672 255 255 255
-0.00376456 -0.00393079 0.0586987 255 255 255
-0.00940841 -0.0029406 0.057445 255 255 255
-0.00940841 -0.0029406 0.057445 255 255 255
-0.00264212 -0.00216371 0.0587414 255 255 255
-0.00969047 -0.00120191 0.0571975 255 255 255
-0.00971927 -0.000583126 0.0571157 255 255 255
-0.00299741 -0.000699412 0.0585047 255 255 255
-0.00299595 -0.000699998 0.0584984 255 255 255
-0.00161129 -0.00110914 0.0588069 255 255 255
-0.015672 -0.000152389 0.0561894 255 255 255
-0.0121245 0.000263691 0.0566975 255 255 255
-0.00835922 0.000794768 0.0572827 255 255 255
-0.00649819 -7.4209e-05 0.0576943 255 255 255
-0.00582259 0.00013333 0.0577669 255 255 255
-0.0023715 -3.22283e-05 0.058507 255 255 255
-0.000964887 0.000807143 0.0586452 255 255 255
-0.000610823 0.000562973 0.0587182 255 255 255
0.000261211 0.000466853 0.0589602 255 255 255
0.000589976 0.000609016 0.0590373 255 255 255
0.00058922 0.000608463 0.0590323 255 255 255
0.00120832 0.000700739 0.0591528 255 255 255
0.00120715 0.000701863 0.0591584 255 255 255
0.00212618 0.000331841 0.0594237 255 255 255
0.00483261 0.000765546 0.0599469 255 255 255
-0.0155039 0.00106345 0.0561256 255 255 255
-0.0151803 0.00153251 0.0560905 255 255 255
-0.0149877 0.00116271 0.0561393 255 255 255
-0.0109303 0.001161 0.0568212 255 255 255
-0.00834636 0.00116079 0.057197 255 255 255
-0.0077581 0.00085517 0.0573434 255 255 255
-0.000936874 0.00132408 0.0585657 255 255 255
-0.00127659 0.00147348 0.0585483 255 255 255
-0.000909619 0.00173053 0.0585363 255 255 255
0.000931262 0.00159575 0.0589472 255 255 255
-0.0156439 0.00237801 0.0560045 255 255 255
-0.0157436 0.00254859 0.0559261 255 255 255
-0.0152275 0.00222667 0.0561093 255 255 255
-0.0147143 0.00231443 0.0561267 255 255 255
-0.0135651 0.00192794 0.0563377 255 255 255
-0.0138419 0.00218407 0.0562842 255 255 255
-0.0136743 0.00256557 0.0562599 255 255 255
-0.0132635 0.00171435 0.0564041 255 255 255
-0.0130067 0.00226606 0.056394 255 255 255
-0.0123822 0.00197 0.0564924 255 255 255
-0.00732446 0.00208249 0.0573236 255 255 255
0.00360063 0.00197298 0.0595051 255 255 255
0.00391609 0.00241808 0.0595182 255 255 255
0.00483832 0.00241443 0.0597142 255 255 255
0.00182982 0.0028335 0.0590342 255 255 255
0.00197084 0.0034635 0.0589557 255 255 255
0.00590111 0.00409225 0.0597858 255 255 255
0.00578001 0.00559089 0.0595649 255 255 255
-4.29884e-05 0.00559981 0.0583788 255 255 255
0.00355705 0.00569948 0.0594838 255 255 255
0.0035432 0.00714381 0.0593014 255 255 255
0.00357468 0.0083623 0.0592953 255 255 255
-0.00672278 0.00857649 0.0569005 255 255 255
-0.00270712 0.00885857 0.0575506 255 255 255
0.00320065 0.00925048 0.0585999 255 255 255
-0.00285533 0.00925394 0.0575208 255 255 255
-0.000267452 0.00957287 0.0579358 255 255 255
0.00257569 0.00978755 0.0583996 255 255 255
0.00355125 0.0096965 0.0586547 255 255 255
-0.0116309 0.0102897 0.0560143 255 255 255
0.00133003 0.0104872 0.0580906 255 255 255
-0.012372 0.0106265 0.0558332 255 255 255
0.000718894 0.0116342 0.0579544 255 255 255
-0.00301446 0.0126104 0.0571419 255 255 255
0.000706787 0.0119577 0.0578722 255 255 255
0.00324633 0.0127139 0.0582828 255 255 255
0.00462542 0.0121638 0.058679 255 255 255
0.00441941 0.0125912 0.0585395 255 255 255
-0.00749769 0.0128624 0.0563949 255 255 255
0.00106908 0.0132386 0.0578624 255 255 255
0.00127631 0.0135781 0.0579028 255 255 255
0.00443363 0.0131788 0.0584974 255 255 255
0.00533679 0.0135473 0.0587545 255 255 255
0.00305989 0.0139639 0.058199 255 255 255
0.00506675 0.0138867 0.0586424 255 255 255
-0.00169193 0.0144875 0.0572999 255 255 255
0.000794239 0.0148941 0.0576766 255 255 255
0.00104137 0.0145423 0.0577504 255 255 255
0.00257162 0.015106 0.0580208 255 255 255
-0.00788336 0.0155824 0.0561941 255 255 255
-0.00178784 0.0159525 0.0571597 255 255 255
-0.000704865 0.0160936 0.0572529 255 255 255
-8.50808e-05 0.0161109 0.0574268 255 255 255
0.000490036 0.0160779 0.0575452 255 255 255
0.00471924 0.016008 0.0583695 255 255 255
-0.00758646 0.0159083 0.0562461 255 255 255
-0.00579029 0.0166136 0.0564292 255 255 255
-0.00579029 0.0166136 0.0564292 255 255 255
-0.0037828 0.016584 0.0567575 255 255 255
-0.00231466 0.0161706 0.0570477 255 255 255
-0.00231466 0.0161706 0.0570477 255 255 255
-0.00135764 0.0166926 0.0571978 255 255 255
0.000500442 0.0164617 0.057506 255 255 255
0.000502909 0.0164629 0.0575095 255 255 255
0.00226511 0.0163195 0.0578763 255 255 255
0.00226476 0.0163252 0.0578812 255 255 255
0.00470058 0.0165901 0.05831 255 255 255
0.00527034 0.0171687 0.0583946 255 255 255
-0.0118617 0.0166889 0.0554907 255 255 255
-0.011081 0.0166681 0.0556044 255 255 255
-0.0069455 0.0166379 0.0562585 255 255 255
-0.00466663 0.0169588 0.0565526 255 255 255
-0.00431732 0.017213 0.0565981 255 255 255
-0.00266561 0.0169144 0.0569288 255 255 255
-0.00188625 0.0175553 0.0570041 255 255 255
0.000806328 0.0173461 0.0575299 255 255 255
-0.0144921 -0.0083055 0.0569984 255 255 255
-0.0102366 -0.00859992 0.0578557 255 255 255
-0.00973993 -0.00822881 0.0578983 255 255 255
-0.00206876 -0.00830301 0.0594901 255 255 255
-0.00536464 -0.00688896 0.0586546 255 255 255
-0.00454997 -0.00531838 0.0587172 255 255 255
-0.00272986 -0.00532495 0.0591384 255 255 255
-0.0111236 -0.00417819 0.0572744 255 255 255
-0.00331914 -0.00324817 0.0587645 255 255 255
-0.0156808 -0.0025827 0.0563537 255 255 255
-0.010623 -0.00167345 0.0571104 255 255 255
-0.0156842 -0.000554397 0.0562128 255 255 255
-0.00805614 -0.000638085 0.0574619 255 255 255
-0.00127873 -0.000312743 0.0588241 255 255 255
-0.00185505 0.000123918 0.058552 255 255 255
0.000589813 0.000341857 0.0590663 255 255 255
0.000851815 0.000342258 0.0590951 255 255 255
-0.0141147 0.00160545 0.0562316 255 255 255
-0.000260844 0.0010509 0.0588123 255 255 255
-5.64339e-06 0.00252994 0.0586334 255 255 255
0.00121616 0.00230744 0.0589343 255 255 255
0.00180471 0.0020744 0.0591027 255 255 255
-0.0150521 0.00265316 0.0560543 255 255 255
-0.00865753 0.00282325 0.0569827 255 255 255
0.00354775 0.00644719 0.0594342 255 255 255
0.00544048 0.0148785 0.0586192 255 255 255
-0.00880453 0.0160164 0.0559885 255 255 255
-0.00363012 0.0163938 0.0568035 255 255 255
-0.0026711 0.0161193 0.0569453 255 255 255
-6.40473e-05 0.0167172 0.0573515 255 255 255
0.00410223 0.0174351 0.0580497 255 255 255
-0.00672762 -0.00260091 0.0579254 255 255 255
0.00316189 -0.00104383 0.0597546 255 255 255
0.00315858 -0.00104371 0.0597571 255 255 255
0.00434461 -0.000975977 0.0600533 255 255 255
0.00434835 -0.000976553 0.0600377 255 255 255
-0.0136782 0.00115824 0.0563772 255 255 255
-0.013676 0.00115849 0.0563795 255 255 255
-0.00645084 0.00117732 0.0579392 255 255 255
-0.00101785 0.0011287 0.0585712 255 255 255
-0.00175136 0.00214141 0.0583869 255 255 255
0.000589475 0.00270465 0.0586976 255 255 255
-0.0109269 0.00292902 0.0566094 255 255 255
-0.00727245 0.00651097 0.056923 255 255 255
0.00094 0.00851495 0.0586297 255 255 255
-0.0103202 0.0110871 0.0561286 255 255 255
-0.00665686 0.0156945 0.056358 255 255 255
-0.0127861 -0.00304987 0.0569058 255 255 255
-0.0140786 -0.00242352 0.0566254 255 255 255
-0.00490577 -0.00173495 0.0582186 255 255 255
-0.00770749 -0.000555548 0.0575145 255 255 255
-0.0047988 -0.000579601 0.0580666 255 255 255
-0.00479622 -0.000578981 0.0580689 255 255 255
0.00223047 -0.0010713 0.0595799 255 255 255
0.00130409 0.000157912 0.0592476 255 255 255
-0.00144709 0.00120595 0.0584903 255 255 255
-0.015136 0.00224628 0.0560871 255 255 255
-0.00676364 0.00280677 0.0576971 255 255 255
-0.00675861 0.00280484 0.0577027 255 255 255
-0.00283096 0.00278235 0.0584255 255 255 255
0.00261554 0.00350652 0.0590995 255 255 255
-0.0028556 0.00423877 0.0579565 255 255 255
-0.00751201 0.0054419 0.0569893 255 255 255
0.00720734 0.0160438 0.0584497 255 255 255
-0.0106924 0.0158586 0.055652 255 255 255
-0.0106924 0.0158586 0.055652 255 255 255
-0.0111956 0.0168721 0.055552 255 255 255
-0.0111956 0.0168721 0.055552 255 255 255
-0.0138098 0.000369451 0.0564397 255 255 255
-0.00114013 0.00183197 0.058485 255 255 255
0.00602404 0.00694431 0.0594965 255 255 255
-0.00845512 -0.000889172 0.0574062 255 255 255
-0.00688311 0.0147869 0.0564158 255 255 255
-0.00708319 0.0155616 0.0562975 255 255 255
-0.0109354 -0.000550758 0.0569624 255 255 255
0.00554037 0.00152884 0.0599758 255 255 255
0.00237709 0.00673861 0.0590131 255 255 255
-0.0158506 -0.00872411 0.0567887 255 255 255
-0.0118972 -0.00900962 0.057598 255 255 255
-0.0116169 -0.00870848 0.0576166 255 255 255
-0.00860327 -0.00903348 0.0582075 255 255 255
-0.00813897 -0.0090294 0.0583191 255 255 255
-0.014423 -0.00814752 0.0570348 255 255 255
-0.014522 -0.00805889 0.0570087 255 255 255
-0.014522 -0.00805889 0.0570087 255 255 255
-0.013249 -0.008051 0.0572454 255 255 255
-0.01257 -0.00847883 0.0574156 255 255 255
-0.0091558 -0.00812669 0.0580232 255 255 255
0.000861028 -0.00878856 0.0600938 255 255 255
0.00248763 -0.00850683 0.0604159 255 255 255
-0.0147277 -0.00716906 0.0569154 255 255 255
-0.0148949 -0.00698833 0.0568583 255 255 255
-0.0136628 -0.00721494 0.0570917 255 255 255
0.00563126 -0.00800273 0.0609748 255 255 255
-0.0132961 -0.00576781 0.0570226 255 255 255
-0.0114838 -0.00583481 0.0573434 255 255 255
-0.0104775 -0.00596843 0.0575511 255 255 255
-0.00828552 -0.00651803 0.0580229 255 255 255
0.0011181 -0.00610031 0.0599633 255 255 255
0.0034491 -0.00609926 0.060435 255 255 255
-0.011393 -0.00490435 0.0572968 255 255 255
-0.00529329 -0.00516035 0.058444 255 255 255
0.00310189 -0.0054983 0.0603042 255 255 255
0.00458043 -0.00593126 0.0606367 255 255 255
0.00458043 -0.00593126 0.0606367 255 255 255
0.00443634 -0.00527656 0.0605715 255 255 255
0.00467326 -0.00500897 0.0605727 255 255 255
-0.0128687 -0.00341418 0.0568743 255 255 255
-0.00596118 -0.00323723 0.0581366 255 255 255
-0.00524887 -0.00362975 0.058346 255 255 255
0.000771302 -0.00346042 0.0595984 255 255 255
0.00201727 -0.00304834 0.0598129 255 255 255
0.00537311 -0.00320337 0.0605048 255 255 255
-0.00904697 -0.00236749 0.0574289 255 255 255
-0.00904697 -0.00236749 0.0574289 255 255 255
-0.00665785 -0.00266198 0.0579566 255 255 255
-0.000769268 -0.00279926 0.0592055 255 255 255
0.000177325 -0.00212363 0.059317 255 255 255
-0.0144873 -0.00175178 0.0565098 255 255 255
-0.000544181 -0.00130159 0.0590201 255 255 255
0.000791212 -0.00201976 0.0594487 255 255 255
0.00155193 -0.00117752 0.0594623 255 255 255
0.00203549 -0.00138993 0.0596531 255 255 255
0.00324465 -0.00135443 0.0598262 255 255 255
0.00397395 -0.00118284 0.0599675 255 255 255
0.00397395 -0.00118284 0.0599675 255 255 255
-0.0108653 -0.000511448 0.0570036 255 255 255
-0.0108653 -0.000511448 0.0570036 255 255 255
-0.00544265 -0.000618754 0.0579606 255 255 255
0.000514247 -0.00103867 0.0592513 255 255 255
0.00423341 -0.00105708 0.0599996 255 255 255
-0.0138868 0.0005822 0.0564184 255 255 255
-0.000879237 0.000309426 0.058727 255 255 255
0.0050515 0.000388962 0.0600371 255 255 255
-0.0147566 0.0026444 0.056096 255 255 255
-0.00777203 0.0018188 0.0573028 255 255 255
0.00269919 0.00208726 0.0593053 255 255 255
-0.0150555 0.00334569 0.0559409 255 255 255
-0.0138487 0.00332791 0.0561473 255 255 255
-0.00835271 0.00302105 0.0570499 255 255 255
-0.0095727 0.00419168 0.0567135 255 255 255
-0.00613906 0.00398193 0.0573577 255 255 255
-0.00546521 0.00645025 0.0572019 255 255 255
0.000779603 0.00892887 0.0582258 255 255 255
0.00384836 0.00945888 0.058793 255 255 255
-0.0116415 0.0110858 0.0559416 255 255 255
0.00236732 0.0124807 0.0581708 255 255 255
-0.000766756 0.0137871 0.0574529 255 255 255
-0.0114679 0.0143575 0.0556318 255 255 255
0.000969914 0.0140972 0.057804 255 255 255
0.005623 0.0166433 0.058543 255 255 255
-0.00135715 0.0180599 0.0570666 255 255 255
-0.0147422 -0.00893258 0.0570174 255 255 255
-0.0147408 -0.00893202 0.0570185 255 255 255
-0.0133207 -0.00873497 0.0573314 255 255 255
-0.0108119 -0.00855236 0.0577268 255 255 255
-0.00534233 -0.00886464 0.058863 255 255 255
-0.00114539 -0.00917188 0.0598269 255 255 255
-0.000982684 -0.00909558 0.0597289 255 255 255
-0.0129411 -0.00831924 0.0573134 255 255 255
-0.000841953 -0.00825067 0.0596968 255 255 255
0.000413462 -0.00857641 0.0600064 255 255 255
9.3763e-05 -0.00810368 0.0599036 255 255 255
0.00117942 -0.0083848 0.060127 255 255 255
0.00197309 -0.00891187 0.0603725 255 255 255
0.00222671 -0.00875404 0.0604071 255 255 255
0.00222671 -0.00875404 0.0604071 255 255 255
0.00391088 -0.00879722 0.0607061 255 255 255
0.00452239 -0.00875077 0.0608066 255 255 255
0.00469972 -0.00816532 0.0608469 255 255 255
-0.0147641 -0.00697547 0.056909 255 255 255
-0.0147641 -0.00697547 0.056909 255 255 255
-0.0121217 -0.00704146 0.0573222 255 255 255
-0.0084796 -0.00750291 0.0579009 255 255 255
-0.00488042 -0.0070094 0.0587781 255 255 255
0.00346035 -0.00707346 0.0604557 255 255 255
-0.00715001 -0.00646342 0.0582222 255 255 255
-0.00596235 -0.00636017 0.0584448 255 255 255
0.00252434 -0.0063006 0.060233 255 255 255
-0.0131111 -0.00501171 0.0570005 255 255 255
-0.0104376 -0.0053269 0.0574995 255 255 255
0.00135 -0.00519113 0.0599 255 255 255
0.00259146 -0.00592726 0.0602536 255 255 255
-0.0107861 -0.0040848 0.0573347 255 255 255
-0.00880117 -0.00400011 0.0576552 255 255 255
-0.0158541 -0.00327357 0.0564116 255 255 255
0.000138651 -0.00336414 0.0594892 255 255 255
0.00123763 -0.00342265 0.0596889 255 255 255
-0.0142714 -0.00203225 0.0565602 255 255 255
-0.00935297 -0.00226732 0.0573678 255 255 255
-0.00521517 -0.00227665 0.0581982 255 255 255
-0.00854009 -0.00181306 0.0574893 255 255 255
-0.0150294 -0.00031209 0.056262 255 255 255
-0.0143512 9.83406e-05 0.0563663 255 255 255
0.00089349 0.000805848 0.0590764 255 255 255
0.00453727 0.000137355 0.0599177 255 255 255
-0.0147298 0.00159481 0.0562234 255 255 255
-0.00159881 0.00207716 0.0584061 255 255 255
0.000308641 0.00205437 0.0587635 255 255 255
-0.0022849 0.00366038 0.0580791 255 255 255
0.00409826 0.00285927 0.0595235 255 255 255
-0.0150403 0.00378231 0.0559584 255 255 255
-0.0150403 0.00378231 0.0559584 255 255 255
-0.0126402 0.00441891 0.0562446 255 255 255
-0.0126428 0.00441919 0.0562413 255 255 255
-0.00805447 0.00388113 0.0570152 255 255 255
-0.00712887 0.00593288 0.057002 255 255 255
0.00189281 0.00698518 0.0590025 255 255 255
-0.00532698 0.00784411 0.0570683 255 255 255
0.00342016 0.00918911 0.0586904 255 255 255
0.00528718 0.00939657 0.0590596 255 255 255
-0.00806982 0.0121209 0.0563745 255 255 255
0.00168084 0.0130029 0.0579939 255 255 255
0.00553023 0.0159918 0.0585637 255 255 255
-0.0101931 0.0155834 0.0557977 255 255 255
-0.0056728 0.0158425 0.0564702 255 255 255
0.00317777 0.0164467 0.05803 255 255 255
0.0031779 0.0167464 0.0579299 255 255 255
0.00379098 0.0174455 0.0580548 255 255 255
-0.0101377 0.0178071 0.0557028 255 255 255
-0.0101393 0.0178071 0.0557034 255 255 255
-0.0047807 0.0180841 0.056466 255 255 255
0.00049836 0.0178889 0.0574324 255 255 255
0.00524706 0.018902 0.0582305 255 255 255
-0.0141932 -0.00873199 0.057131 255 255 255
-0.00799024 -0.00889293 0.0583519 255 255 255
-0.00469635 -0.0088318 0.0589766 255 255 255
-0.00240974 -0.00900974 0.0595005 255 255 255
-0.00206908 -0.00890925 0.0595189 255 255 255
-0.00145136 -0.00885276 0.0596241 255 255 255
-0.00145136 -0.00885276 0.0596241 255 255 255
-0.0161932 -0.00755744 0.0563474 255 255 255
-0.00932893 -0.00820301 0.0579977 255 255 255
-0.00537733 -0.00830364 0.058789 255 255 255
-0.00339936 -0.00861918 0.0592875 255 255 255
-0.0139082 -0.00718692 0.0570315 255 255 255
0.00602423 -0.00573668 0.0608089 255 255 255
-0.0128852 -0.00372894 0.0568981 255 255 255
-0.000213301 -0.00205908 0.0592397 255 255 255
0.00562301 -0.000590988 0.0602581 255 255 255
-0.00139209 0.000832533 0.0585376 255 255 255
-0.01104 0.00248058 0.056635 255 255 255
-0.00127862 0.00192853 0.058471 255 255 255
0.000284692 0.00260661 0.0586954 255 255 255
0.00149914 0.00191139 0.0590674 255 255 255
-0.0136959 0.00287153 0.0561657 255 255 255
-0.013719 0.00302634 0.0562386 255 255 255
0.00348482 0.00296459 0.0593469 255 255 255
-0.0045181 0.00393712 0.0576739 255 255 255
-0.00278404 0.00381956 0.0579977 255 255 255
-0.0136122 0.00450246 0.056089 255 255 255
0.00278881 0.00774494 0.0591071 255 255 255
0.00257063 0.00901228 0.0584941 255 255 255
0.00322087 0.00901083 0.058608 255 255 255
0.00321066 0.00925382 0.0586082 255 255 255
0.00495983 0.00873769 0.0591033 255 255 255
0.00186042 0.00993839 0.0583093 255 255 255
-0.0114923 0.0104489 0.0560716 255 255 255
0.00377004 0.0130937 0.0584076 255 255 255
0.000483843 0.0140036 0.0576748 255 255 255
-0.000120663 0.0140268 0.0575512 255 255 255
0.00192514 0.0172347 0.0577833 255 255 255
0.00311267 0.0175131 0.0579709 255 255 255
0.00287933 0.0182463 0.0578382 255 255 255
0.0108179 0.019819 0.062356 255 255 255
0.00569031 -0.00623144 0.0608425 255 255 255
0.00043166 -0.00580503 0.0597679 255 255 255
-0.00269215 -0.00412915 0.0589475 255 255 255
-0.00483326 0.00052667 0.0580327 255 255 255
-0.00445859 0.000538673 0.0581225 255 255 255
-0.00163838 0.00175356 0.0584482 255 255 255
-0.0110487 0.00209776 0.0567024 255 255 255
-0.0110487 0.00209776 0.0567024 255 255 255
-0.000322537 0.00228691 0.0585696 255 255 255
-0.015015 0.00301916 0.0560166 255 255 255
-0.0130088 0.00469831 0.0561404 255 255 255
0.00252563 0.0176169 0.0578832 255 255 255
0.00320975 0.0177373 0.0579342 255 255 255
0.00409775 0.0174321 0.0580428 255 255 255
-0.0147675 -0.00849095 0.0569722 255 255 255
-0.00137178 -0.0079074 0.0592513 255 255 255
-0.0155704 0.00359343 0.0558332 255 255 255
0.00310255 -0.00482766 0.0602793 255 255 255
0.00365367 -0.00425559 0.0603285 255 255 255
-0.0127865 -0.00304811 0.0569105 255 255 255
0.000555075 0.0127189 0.0578792 255 255 255
0.0048033 0.017915 0.058215 255 255 255
0.0117921 0.0192866 0.0634476 255 255 255
5.94253e-05 -0.00795528 0.0595929 255 255 255
-0.00199516 -0.00397655 0.0591932 255 255 255
0.00435729 -0.00407295 0.0603708 255 255 255
0.000504273 0.0040797 0.0586056 255 255 255
0.00341061 -0.000756738 0.0598924 255 255 255
0.00121432 0.0173822 0.0576153 255 255 255
-1.4905e-05 -0.00879841 0.0599444 255 255 255
0.0085586 -0.00860045 0.0614302 255 255 255
-0.0148792 -0.00801247 0.056894 255 255 255
-0.0136544 -0.00822022 0.0571879 255 255 255
-0.0132458 -0.00805542 0.0572415 255 255 255
-0.00321014 -0.00800074 0.0592529 255 255 255
-0.00321014 -0.00800074 0.0592529 255 255 255
0.00582496 -0.00831202 0.0610169 255 255 255
0.00711778 -0.00854888 0.0611287 255 255 255
0.00713318 -0.00822218 0.0610843 255 255 255
-0.0147297 -0.00716568 0.0569228 255 255 255
-0.0147127 -0.00679862 0.0568852 255 255 255
-0.00505302 -0.00710869 0.0587439 255 255 255
-0.00379048 -0.00717555 0.0590365 255 255 255
0.00520419 -0.00711589 0.0608631 255 255 255
-0.0160281 -0.00655853 0.0566196 255 255 255
-0.0160319 -0.00655881 0.0566201 255 255 255
-0.0150112 -0.00665194 0.0568073 255 255 255
-0.010442 -0.0063153 0.0575737 255 255 255
-0.00682834 -0.00625826 0.0582725 255 255 255
0.00498611 -0.0058998 0.0606944 255 255 255
-0.0125138 -0.00554081 0.0571605 255 255 255
-0.0108596 -0.00526203 0.0574332 255 255 255
-0.00964316 -0.00510172 0.0576267 255 255 255
-0.00843368 -0.00562472 0.0579027 255 255 255
-0.00407678 -0.00529274 0.0587999 255 255 255
-0.00838898 -0.00472529 0.0578086 255 255 255
-0.00533888 -0.00466306 0.0583612 255 255 255
-0.00563538 -0.00390497 0.0583055 255 255 255
-0.00318944 -0.00402396 0.0588504 255 255 255
-0.00145017 -0.0042009 0.0592375 255 255 255
0.0016544 -0.00446703 0.0598661 255 255 255
0.00246168 -0.00413749 0.0600355 255 255 255
0.00198075 -0.00373776 0.0598593 255 255 255
0.00198147 -0.00373755 0.0598601 255 255 255
0.00528298 -0.00416487 0.0606052 255 255 255
-0.0147794 -0.00340297 0.0565877 255 255 255
-0.00832469 -0.00316085 0.0576518 255 255 255
0.00368749 -0.0030223 0.0600835 255 255 255
0.00416618 -0.00344297 0.0603018 255 255 255
-0.0145004 -0.00234167 0.0565028 255 255 255
-0.0139614 -0.00289495 0.0566746 255 255 255
-0.0109103 -0.00222304 0.0571316 255 255 255
0.00154576 -0.00179619 0.0596059 255 255 255
0.00201754 -0.00245529 0.0597806 255 255 255
0.00369878 -0.00241318 0.0600774 255 255 255
0.00492123 -0.00191404 0.0602831 255 255 255
0.00586888 -0.00194553 0.0604825 255 255 255
-0.0106291 -0.00157564 0.0571062 255 255 255
-0.00711328 -0.00133345 0.0577137 255 255 255
-0.00451124 -0.00111274 0.0581933 255 255 255
-0.00379308 -0.00145426 0.0583935 255 255 255
0.00276354 -0.00148858 0.0597729 255 255 255
0.00276354 -0.00148858 0.0597729 255 255 255
0.00350765 -0.00083099 0.0598892 255 255 255
-0.0137538 -0.000760692 0.0565261 255 255 255
-0.0111709 -0.000489865 0.0569592 255 255 255
-0.00973978 -0.000249687 0.0570858 255 255 255
-0.0075705 -0.000336413 0.0575148 255 255 255
-0.000289642 -0.000194724 0.0589107 255 255 255
0.000834154 -0.000190237 0.0591785 255 255 255
0.00321555 6.85761e-05 0.0596948 255 255 255
0.00350549 0.000192034 0.0597346 255 255 255
0.00484167 -0.000199765 0.0600605 255 255 255
-0.00502015 0.000195405 0.0579131 255 255 255
-0.00214343 0.000370222 0.0585185 255 255 255
-0.00214343 0.000370222 0.0585185 255 255 255
-0.0086299 0.00167938 0.0571044 255 255 255
-0.00828605 0.00263477 0.0570853 255 255 255
-0.00794579 0.0027444 0.0571572 255 255 255
-0.00123586 0.00333537 0.0583525 255 255 255
-0.000301012 0.0033841 0.058561 255 255 255
-0.00781058 0.00396137 0.0570596 255 255 255
-0.00780837 0.00396295 0.0570513 255 255 255
0.00339494 0.00412017 0.0591952 255 255 255
-0.0155634 0.00411355 0.0557805 255 255 255
0.00486892 0.00504792 0.059478 255 255 255
-0.0140523 0.0058308 0.0559384 255 255 255
-0.0138118 0.00584314 0.0559194 255 255 255
0.00571826 0.00677239 0.0594466 255 255 255
-0.00645412 0.00669179 0.0569118 255 255 255
-0.0064604 0.00697966 0.0568928 255 255 255
-0.00020916 0.00682551 0.0582268 255 255 255
-0.0103879 0.00777743 0.0563484 255 255 255
-0.011926 0.00849675 0.0560723 255 255 255
-0.0120418 0.0089856 0.0560703 255 255 255
-0.00907816 0.00839546 0.0564977 255 255 255
-0.00204586 0.00933748 0.0576118 255 255 255
-0.00916845 0.00961382 0.0563841 255 255 255
-0.00967624 0.00981196 0.0563005 255 255 255
-0.0091498 0.011454 0.0562727 255 255 255
-0.0115047 0.012391 0.055844 255 255 255
-0.00958092 0.0130162 0.056074 255 255 255
-0.0020647 0.0132247 0.0572946 255 255 255
-0.00644082 0.0143891 0.056457 255 255 255
-0.00597172 0.0137332 0.0565956 255 255 255
-0.00449898 0.0145949 0.0567635 255 255 255
-0.00449898 0.0145949 0.0567635 255 255 255
0.00324209 0.0152155 0.0581521 255 255 255
0.0158111 0.0204569 0.0653584 255 255 255
0.00347028 0.0179874 0.0579537 255 255 255
0.0110606 0.0204551 0.0606977 255 255 255
-0.0133206 -0.00875091 0.0573067 255 255 255
-0.000807137 -0.00875294 0.0597598 255 255 255
0.000739978 -0.00899435 0.0600714 255 255 255
0.00133816 -0.00868312 0.0601632 255 255 255
0.00166717 -0.00897075 0.0602968 255 255 255
0.00290271 -0.00889029 0.0605079 255 255 255
0.00501246 -0.00892942 0.0609735 255 255 255
0.00488408 -0.00881406 0.0608713 255 255 255
0.00514996 -0.00880606 0.0609416 255 255 255
0.00533206 -0.00876 0.0609586 255 255 255
0.00636171 -0.00884358 0.0610081 255 255 255
0.00714085 -0.00882315 0.0611869 255 255 255
0.00714378 -0.00881543 0.0612001 255 255 255
0.00827586 -0.00881821 0.0614194 255 255 255
0.00827586 -0.00881821 0.0614194 255 255 255
0.00945188 -0.0086771 0.0616165 255 255 255
0.0114267 -0.008573 0.0638924 255 255 255
-0.0162357 -0.00820074 0.0566705 255 255 255
-0.0114034 -0.00810595 0.0575655 255 255 255
-0.00505221 -0.00812375 0.0588494 255 255 255
-0.00142943 -0.00825216 0.0595924 255 255 255
-0.000525889 -0.00805454 0.0597648 255 255 255
0.00800536 -0.00860216 0.061298 255 255 255
-0.0160243 -0.00772438 0.0563282 255 255 255
-0.016174 -0.00690363 0.05664 255 255 255
-0.0113397 -0.00759092 0.0572741 255 255 255
-0.010622 -0.00692461 0.0575938 255 255 255
0.00163945 -0.00693759 0.0601407 255 255 255
-0.0156234 -0.00635284 0.0545605 255 255 255
-0.0148686 -0.00652563 0.0568484 255 255 255
-0.00294471 -0.0054475 0.0590584 255 255 255
0.00468238 -0.00472139 0.060525 255 255 255
-0.00985398 -0.0045746 0.0575387 255 255 255
0.00318805 -0.00386018 0.0601001 255 255 255
-0.0152384 -0.00296239 0.0564609 255 255 255
-0.00955517 -0.00348486 0.0574885 255 255 255
-0.00784045 -0.00316352 0.0577752 255 255 255
-0.000571463 -0.00284339 0.0592694 255 255 255
-0.00099095 -0.00185218 0.0590333 255 255 255
-0.00638992 -0.00157979 0.0578932 255 255 255
-0.00638992 -0.00157979 0.0578932 255 255 255
-0.00141956 -0.0014082 0.0589092 255 255 255
-0.000681332 -0.00113232 0.0589451 255 255 255
-0.00885567 0.000967867 0.057147 255 255 255
0.00584279 0.00104484 0.06014 255 255 255
-0.0101827 0.00114653 0.0568974 255 255 255
-0.000915873 0.00220239 0.0584872 255 255 255
0.000336501 0.00230228 0.0587087 255 255 255
-0.00642006 0.00353728 0.0575262 255 255 255
0.0050629 0.00394682 0.0595819 255 255 255
-0.0152948 0.00453118 0.0558375 255 255 255
-0.0140975 0.00450962 0.0560126 255 255 255
-0.0150181 0.00524413 0.0557636 255 255 255
-0.0152586 0.00545947 0.0557334 255 255 255
-0.0130862 0.00529877 0.0560912 255 255 255
-0.0027947 0.00604132 0.0578179 255 255 255
-0.0152956 0.00602167 0.0557929 255 255 255
-0.01334 0.00598349 0.0560439 255 255 255
0.00515624 0.00777599 0.0592594 255 255 255
-0.0113205 0.00767416 0.0562109 255 255 255
-0.0113205 0.00767416 0.0562109 255 255 255
-0.0015672 0.00789842 0.0579044 255 255 255
0.00346274 0.00876553 0.0589333 255 255 255
-0.0102901 0.00821207 0.0563715 255 255 255
-0.00938228 0.00842909 0.0564571 255 255 255
0.00388294 0.00912073 0.0587738 255 255 255
0.00442335 0.0108134 0.0588141 255 255 255
0.0044538 0.0108033 0.0588192 255 255 255
8.75935e-05 0.011334 0.0578609 255 255 255
0.00444412 0.0122948 0.0586705 255 255 255
0.00606634 0.0123124 0.0589651 255 255 255
-0.00480202 0.0127509 0.0569211 255 255 255
0.00390674 0.0137901 0.0582988 255 255 255
-0.00983338 0.014322 0.055938 255 255 255
-0.00707571 0.0142746 0.0564247 255 255 255
-0.00707571 0.0142746 0.0564247 255 255 255
0.000183132 0.0143005 0.0575895 255 255 255
0.0016092 0.0146018 0.0578732 255 255 255
0.00377478 0.0164706 0.0580933 255 255 255
0.0105372 0.0200362 0.0607486 255 255 255
0.0105277 0.0200348 0.0607451 255 255 255
0.0111088 0.0200943 0.0612972 255 255 255
0.0139212 0.0210055 0.0629046 255 255 255
0.0148226 0.0214507 0.0630789 255 255 255
0.0148226 0.0214507 0.0630789 255 255 255
0.0105372 0.020288 0.0606453 255 255 255
0.0115291 0.0203754 0.0608165 255 255 255
-0.0083047 -0.00901698 0.0583021 255 255 255
0.0100291 -0.00861017 0.0617545 255 255 255
-0.0143761 -0.00853667 0.0571056 255 255 255
0.00640193 -0.00837528 0.0609838 255 255 255
-0.015996 -0.0068774 0.0567276 255 255 255
0.00130255 -0.00707296 0.0601088 255 255 255
0.00604745 -0.00688212 0.0607736 255 255 255
-0.00827099 -0.0059663 0.0579516 255 255 255
-0.00272449 -0.00582413 0.0591901 255 255 255
-0.00131795 -0.00554761 0.0594119 255 255 255
-0.000236564 -0.00498335 0.0595537 255 255 255
-0.00363645 -0.004115 0.0588154 255 255 255
-0.00195957 -0.00444501 0.0591568 255 255 255
0.00379889 -0.00433229 0.0603444 255 255 255
-0.0155352 -0.00350581 0.0564518 255 255 255
0.00622854 -0.00205752 0.060591 255 255 255
-0.00127754 0.00148491 0.0584949 255 255 255
-0.0021314 0.00198932 0.0583455 255 255 255
-0.000283244 0.00154596 0.058787 255 255 255
-0.00122142 0.00275969 0.0584035 255 255 255
-0.0132585 0.00304835 0.0562822 255 255 255
-0.0132573 0.0030385 0.0562742 255 255 255
-0.00424878 0.00395601 0.0577228 255 255 255
0.00197002 0.00375655 0.0589335 255 255 255
-0.0136105 0.00450233 0.0560865 255 255 255
-0.0104391 0.00414855 0.0566483 255 255 255
-0.00857212 0.00474908 0.0568552 255 255 255
-0.000197977 0.00580092 0.0583043 255 255 255
-0.00153522 0.00695497 0.0579728 255 255 255
0.00541888 0.00844052 0.0592321 255 255 255
-0.000594111 0.00975645 0.0578658 255 255 255
-0.000379247 0.0101525 0.0578131 255 255 255
0.00317936 0.0108438 0.0584266 255 255 255
-0.0104831 0.0140344 0.0558684 255 255 255
-0.0104831 0.0140344 0.0558684 255 255 255
-0.00928409 0.0135166 0.0560955 255 255 255
0.015409 0.020369 0.065119 255 255 255
0.013679 0.0214117 0.0628352 255 255 255
0.0158151 0.0215186 0.0649612 255 255 255
0.0140251 0.0215017 0.0628476 255 255 255
0.00619476 -0.00863861 0.0609853 255 255 255
-0.00568389 -0.00687256 0.0585738 255 255 255
-0.0142445 0.00300942 0.0561527 255 255 255
-0.00309245 0.00393068 0.0579483 255 255 255
-0.00114258 0.00554415 0.0582089 255 255 255
-0.00728623 0.0142585 0.0563665 255 255 255
0.00097203 -0.00787311 0.0598656 255 255 255
-0.0143025 -0.00699532 0.0568563 255 255 255
0.000150161 -0.00623134 0.0598097 255 255 255
-0.0111256 -0.00349473 0.0572183 255 255 255
-0.0157454 -0.00171639 0.0563034 255 255 255
-0.00181901 0.00510585 0.0581056 255 255 255
-0.00648741 0.0123907 0.0568321 255 255 255
0.0133789 0.020554 0.0627787 255 255 255
-0.00464651 -0.00256772 0.0583342 255 255 255
-0.00285347 0.00143592 0.0585846 255 255 255
-0.0154858 0.00535562 0.0556696 255 255 255
-0.0117607 0.00703944 0.0562144 255 255 255
0.00507471 -0.00783282 0.0607083 255 255 255
0.00507471 -0.00783282 0.0607083 255 255 255
-0.0111423 0.00794761 0.0562222 255 255 255
0.0163477 0.0215966 0.0658644 255 255 255
-0.00117428 -0.00814124 0.0704923 255 255 255
0.00190727 -0.00920219 0.0605087 255 255 255
0.00269427 -0.00901862 0.0628338 255 255 255
0.00344853 -0.00914862 0.0607412 255 255 255
0.00444454 -0.00890916 0.0640593 255 255 255
0.00445116 -0.00905394 0.0622191 255 255 255
0.00557835 -0.00912879 0.0613254 255 255 255
0.00588234 -0.00913308 0.0612492 255 255 255
0.00693231 -0.00909327 0.0634162 255 255 255
-0.0151125 -0.00907247 0.056944 255 255 255
-0.011839 -0.00917643 0.0576775 255 255 255
-0.0119752 -0.00913217 0.0576335 255 255 255
-0.0119752 -0.00913217 0.0576335 255 255 255
