ply
format ascii 1.0
element vertex 667
property float x
property float y
property float z
property uchar red
property uchar green
property uchar blue
end_header
-0.00214251 -6.624e-05 0.000364647 0 255 0
-0.00110344 4.61677e-05 0.000102316 0 255 0
-0.000169035 7.4895e-05 2.64782e-05 0 255 0
0.000679555 2.93051e-05 7.77236e-05 0 255 0
0.001637 -7.54452e-05 0.000274048 0 255 0
0.00249539 -0.00024107 0.00059736 0 255 0
0.00352092 -0.000541819 0.00122648 0 255 0
0.00446249 -0.000986176 0.00217344 0 255 0
0.0050101 -0.00139095 0.00306805 0 255 0
0.00532827 -0.00177624 0.00397247 0 255 0
0.00168902 -0.000964251 0.005558 255 255 255
0.00121784 -0.000856688 0.00544777 255 255 255
-0.001488 -0.000988653 0.00516163 255 255 255
0.00119612 -0.000134685 0.00528281 255 255 255
0.00156441 0.00035562 0.00554484 255 255 255
0.00151543 0.000409147 0.00556148 255 255 255
0.00174699 0.000831878 0.00527593 255 255 255
-0.00178878 0.00116044 0.00467872 255 255 255
-0.00168655 0.00129921 0.00438216 255 255 255
-0.000203358 -0.00169821 0.00536718 255 255 255
-0.000238685 -0.00160241 0.00533063 255 255 255
-0.00136896 -9.90557e-05 0.00475279 255 255 255
0.00194312 -0.000661954 0.00546106 255 255 255
0.000697065 -2.42749e-05 0.00520953 255 255 255
0.00106147 3.14698e-05 0.00530139 255 255 255
-0.00251838 0.00129967 0.00447442 255 255 255
-0.00211482 0.00120711 0.00463646 255 255 255
0.0021384 -0.000169705 0.00544361 255 255 255
0.00233061 -0.000249691 0.00777059 255 255 255
-0.00209091 0.00144165 0.00392004 255 255 255
-0.00166759 0.00132439 0.00414919 255 255 255
-0.00145446 0.00133836 0.00412877 255 255 255
-0.00108502 0.00129261 0.00449844 255 255 255
-0.000125109 0.00115234 0.00475463 255 255 255
0.00135471 0.000867059 0.005204 255 255 255
0.00142126 0.000860966 0.00521536 255 255 255
-1.26655e-05 0.0013666 0.00419568 255 255 255
0.00243329 0.000539743 0.00579035 255 255 255
0.0012082 -0.000946583 0.00547511 255 255 255
0.00190795 -0.000230172 0.00539309 255 255 255
0.00128001 -0.000125576 0.00529976 255 255 255
0.000724573 -0.000163442 0.00517017 255 255 255
0.000719899 -2.45896e-05 0.00522658 255 255 255
0.00151945 0.000303887 0.0055194 255 255 255
-0.00081679 0.000343716 0.00506013 255 255 255
-0.00169548 0.000216012 0.00482866 255 255 255
-0.00146033 0.000422982 0.00495623 255 255 255
0.000270632 0.000778328 0.00545255 255 255 255
-0.00157652 0.00126411 0.00442095 255 255 255
0.00157475 -0.000879991 0.0055157 255 255 255
0.00201549 -0.000233254 0.00540795 255 255 255
0.00215337 -6.26232e-05 0.00550909 255 255 255
0.00181733 -4.81386e-05 0.00550548 255 255 255
0.00194727 6.9858e-05 0.00557736 255 255 255
0.00111069 0.000115164 0.00542629 255 255 255
-0.000608369 0.000137323 0.00502678 255 255 255
0.00116707 0.000232813 0.0054509 255 255 255
-0.00151591 0.000432331 0.00496485 255 255 255
0.0021305 0.000504314 0.0057171 255 255 255
0.00231299 0.000519527 0.00575707 255 255 255
6.03896e-05 0.0004945 0.00529965 255 255 255
0.00143677 0.000552169 0.00559933 255 255 255
0.000773354 0.000644353 0.00549179 255 255 255
0.00160468 -0.000881109 0.00552336 255 255 255
0.0020675 -0.000237651 0.00541917 255 255 255
-0.000906378 0.000267178 0.00502311 255 255 255
-0.000802689 0.000661208 0.00520126 255 255 255
0.00219649 0.000276081 0.00563986 255 255 255
0.00061846 0.000950197 0.00510727 255 255 255
3.13529e-05 -0.00116801 0.00544443 255 255 255
0.00169658 -0.000887779 0.00551485 255 255 255
-0.00114509 -0.000871522 0.00516779 255 255 255
0.000940041 -0.000651941 0.00531604 255 255 255
0.000132151 -0.00056042 0.00517412 255 255 255
1.45082e-05 -0.000555081 0.00515574 255 255 255
0.0001274 -0.000525969 0.00515786 255 255 255
-0.00119006 -0.000577359 0.00501663 255 255 255
0.0012987 -0.000308996 0.00523015 255 255 255
-0.00117672 -0.000539099 0.00500685 255 255 255
0.00103301 -0.000280702 0.00519544 255 255 255
0.000900561 -0.000269235 0.00516785 255 255 255
0.000666223 -0.000247688 0.00513061 255 255 255
0.000811435 -0.000214911 0.00516816 255 255 255
0.00122714 -0.000177092 0.00526173 255 255 255
0.00101941 -0.000163383 0.00523557 255 255 255
0.000668424 -0.000192338 0.00514085 255 255 255
0.0020244 -6.71244e-05 0.0055586 255 255 255
0.000457086 -0.000155532 0.00511301 255 255 255
0.000873958 -0.000110878 0.0052289 255 255 255
0.00194619 2.17653e-05 0.00554356 255 255 255
0.00043494 -0.000119969 0.00512413 255 255 255
0.000596974 -8.84786e-05 0.00517269 255 255 255
0.000829629 -5.15411e-05 0.00523576 255 255 255
0.00145845 2.71865e-05 0.00539546 255 255 255
0.000726461 -5.39099e-05 0.00521756 255 255 255
0.000229126 -9.13387e-05 0.00509094 255 255 255
0.000655708 -4.13194e-05 0.00520613 255 255 255
-0.000203269 -0.000100077 0.00500315 255 255 255
0.000252706 -4.6138e-05 0.00512088 255 255 255
0.0019523 0.000159999 0.00560138 255 255 255
-0.000262998 -7.0038e-05 0.00500312 255 255 255
0.00222964 0.000239836 0.00564153 255 255 255
0.00192782 0.000209085 0.00563148 255 255 255
0.00195877 0.000296525 0.00565756 255 255 255
-0.00129675 -9.02883e-05 0.00472697 255 255 255
0.00183614 0.000307525 0.00562085 255 255 255
0.000502926 0.000212513 0.00532886 255 255 255
-0.000226466 0.00013946 0.0050912 255 255 255
0.000372115 0.000223044 0.00530101 255 255 255
-0.00126678 5.81494e-05 0.00485143 255 255 255
0.00204358 0.000552235 0.00571174 255 255 255
-0.00134468 7.16934e-05 0.00484426 255 255 255
-0.000254494 0.000239446 0.00518957 255 255 255
0.00149575 0.000524769 0.00560373 255 255 255
0.000377149 0.000366195 0.00536215 255 255 255
0.000967487 0.00049706 0.00549313 255 255 255
0.000509164 0.000445784 0.00543204 255 255 255
2.02089e-06 0.000423097 0.00524675 255 255 255
0.00097008 0.00062847 0.00554416 255 255 255
0.00111182 0.000656724 0.00560349 255 255 255
0.000736813 0.000660478 0.00549925 255 255 255
-0.00175471 0.00022308 0.00482103 255 255 255
-0.00115947 0.000367587 0.00506914 255 255 255
-0.000245955 0.000547091 0.00531961 255 255 255
0.000633533 0.000712268 0.00550405 255 255 255
4.98577e-05 0.000622078 0.00534581 255 255 255
-0.0016601 0.00037309 0.00489606 255 255 255
-0.000562944 0.000630381 0.00521577 255 255 255
0.000167457 0.000776154 0.00541962 255 255 255
0.00155638 0.000997004 0.00495044 255 255 255
-0.00193433 0.000412244 0.00488539 255 255 255
-0.00115288 0.000631109 0.00517244 255 255 255
-0.000405528 0.000799468 0.00535506 255 255 255
-0.000498391 0.000801007 0.0052924 255 255 255
0.000614319 0.00098952 0.00494797 255 255 255
-0.00115575 0.000877818 0.00522429 255 255 255
-0.00175995 0.000908487 0.00507206 255 255 255
-0.00193035 0.000925131 0.00508429 255 255 255
-9.4319e-05 -0.00115524 0.00541928 255 255 255
-5.16996e-05 -0.00114557 0.00543608 255 255 255
0.00129869 -0.000864521 0.005431 255 255 255
0.0013615 -0.000870202 0.00547215 255 255 255
0.00151307 -0.000877625 0.00549728 255 255 255
0.00196965 -0.000704339 0.00546832 255 255 255
0.00201181 -0.000670962 0.00545587 255 255 255
3.76935e-05 -0.000551225 0.00516309 255 255 255
-4.1282e-05 -0.000539304 0.00514911 255 255 255
-0.000191468 -0.000523512 0.00512463 255 255 255
-0.000228272 -0.000517524 0.00510298 255 255 255
0.00232154 -0.000434168 0.0053083 255 255 255
0.00212201 -0.000328297 0.00538678 255 255 255
0.00164405 -0.000293153 0.00530275 255 255 255
0.00178279 -0.000256818 0.00534832 255 255 255
0.0019345 -0.000263545 0.00537485 255 255 255
0.0018615 -0.000190274 0.00538555 255 255 255
0.000962731 -0.000164442 0.00521569 255 255 255
0.000171683 -6.57105e-05 0.00509434 255 255 255
0.00189579 -5.55926e-05 0.005519 255 255 255
0.00218288 -1.2003e-05 0.00551902 255 255 255
0.0018219 3.29335e-05 0.00552578 255 255 255
-0.0013771 3.9466e-05 0.00482316 255 255 255
0.000584691 6.84462e-05 0.00528714 255 255 255
0.000494051 7.34453e-05 0.005284 255 255 255
0.00190001 7.47762e-05 0.00557146 255 255 255
0.000362747 8.63665e-05 0.00526335 255 255 255
0.0018233 8.05886e-05 0.00554605 255 255 255
0.0022083 8.83067e-05 0.00557453 255 255 255
0.00116278 0.000107395 0.00541827 255 255 255
0.000586146 0.000155998 0.00531561 255 255 255
0.000474498 0.000172216 0.00530862 255 255 255
0.000498988 0.000167281 0.00531911 255 255 255
0.00183015 0.000220605 0.00560214 255 255 255
0.00238197 0.000230958 0.00566286 255 255 255
0.00155052 0.000245617 0.00549708 255 255 255
-0.000409001 0.000255252 0.00518388 255 255 255
0.0014852 0.000266527 0.00549525 255 255 255
0.00126397 0.000269788 0.00550739 255 255 255
0.00203898 0.000290928 0.00568078 255 255 255
0.00059048 0.000298154 0.00537286 255 255 255
7.92146e-05 0.000299419 0.00521841 255 255 255
0.000987555 0.000301385 0.00541317 255 255 255
0.000480046 0.000313376 0.00536391 255 255 255
0.00169648 0.000334283 0.00556502 255 255 255
0.00131895 0.000392982 0.00557194 255 255 255
0.00126715 0.000400715 0.00556896 255 255 255
0.00117563 0.000413483 0.00554074 255 255 255
0.00112286 0.000416671 0.00554417 255 255 255
0.00151283 0.000441102 0.00557191 255 255 255
0.000374949 0.000460102 0.00541454 255 255 255
0.00152172 0.000469794 0.00556978 255 255 255
0.00157171 0.000466058 0.00558737 255 255 255
0.000932199 0.000478033 0.00546385 255 255 255
-0.00140443 0.000504876 0.00499773 255 255 255
-0.00116121 0.000522946 0.005139 255 255 255
-0.000334559 0.000554406 0.00526554 255 255 255
0.00125381 0.000630244 0.00562522 255 255 255
0.000354044 0.000772552 0.00546686 255 255 255
0.000336303 0.00097708 0.00507348 255 255 255
0.00209121 0.00102795 0.00482659 255 255 255
-0.00165506 0.00132944 0.00416967 255 255 255
-0.00175644 0.00133687 0.00412923 255 255 255
-1.84099e-06 -0.00114831 0.00544123 255 255 255
0.000142479 -0.00100903 0.0054131 255 255 255
6.60932e-05 -0.0010049 0.0053931 255 255 255
0.00194558 -0.000667406 0.00544888 255 255 255
0.00102014 -0.00066338 0.00534108 255 255 255
0.000175641 -0.000522543 0.00515818 255 255 255
0.00204558 -0.000312633 0.00539148 255 255 255
-0.00113666 -0.000553679 0.00500008 255 255 255
0.00199598 -0.00027175 0.00539929 255 255 255
0.00191193 -0.000193208 0.0054319 255 255 255
0.00206546 -0.000100987 0.00547934 255 255 255
0.000409217 -0.000224435 0.00507432 255 255 255
0.000148303 -0.000196791 0.00504209 255 255 255
0.000650782 -0.000146116 0.00516427 255 255 255
0.000282847 -0.00016741 0.005076 255 255 255
0.000289632 -0.00012725 0.00508947 255 255 255
0.000361154 -0.000109408 0.00511003 255 255 255
0.000195193 -0.000110854 0.00508332 255 255 255
0.00203375 6.51292e-05 0.00562833 255 255 255
0.00048335 -8.02594e-05 0.00515394 255 255 255
0.000935491 -1.0888e-05 0.00527264 255 255 255
-0.000171494 -0.000123128 0.00499623 255 255 255
0.000195735 -6.56933e-07 0.00511739 255 255 255
0.00204285 0.00020704 0.00568769 255 255 255
0.000113247 4.31673e-05 0.00511913 255 255 255
0.000213532 9.29665e-05 0.00515572 255 255 255
0.00193637 0.000304319 0.00567043 255 255 255
0.0015245 0.000261684 0.00552186 255 255 255
-0.000531032 3.85045e-05 0.00499003 255 255 255
-5.26506e-05 0.000105541 0.0051016 255 255 255
-0.00214003 -0.000186361 0.00552467 255 255 255
-0.00217229 -0.000184834 0.00552043 255 255 255
0.000585107 0.000210947 0.00537507 255 255 255
-0.000986648 1.30704e-05 0.00488401 255 255 255
0.000475208 0.000213183 0.00533053 255 255 255
-0.00103455 1.3999e-05 0.00487296 255 255 255
-0.000659039 6.09057e-05 0.00496893 255 255 255
0.00221306 0.000449839 0.00571678 255 255 255
0.000277766 0.000256107 0.00523922 255 255 255
0.00091821 0.000361906 0.00542353 255 255 255
0.000504399 0.000306859 0.00536613 255 255 255
-0.00103471 9.13718e-05 0.0049075 255 255 255
0.0019143 0.00053318 0.00568554 255 255 255
0.000480113 0.000355176 0.00539295 255 255 255
0.000228503 0.000330028 0.00525131 255 255 255
-0.00132202 0.000101418 0.00485882 255 255 255
-0.00107025 0.000136405 0.00491129 255 255 255
-0.000351933 0.000251298 0.00517614 255 255 255
0.000199811 0.000340648 0.00525862 255 255 255
-0.0012143 0.000158785 0.00490275 255 255 255
0.000214402 0.000403934 0.00528854 255 255 255
-0.00111105 0.00019586 0.00493237 255 255 255
-0.00147582 0.000175859 0.00485981 255 255 255
0.00010382 0.000457072 0.00527636 255 255 255
-0.00116453 0.000252796 0.00494469 255 255 255
0.000156728 0.000477572 0.00530892 255 255 255
0.00269702 0.000881329 0.00511557 255 255 255
-0.000348226 0.000424398 0.00524547 255 255 255
0.000215379 0.000538443 0.00535169 255 255 255
-0.00105909 0.000359144 0.00506921 255 255 255
8.02066e-07 0.000559521 0.00530533 255 255 255
0.000578342 0.000716862 0.00549151 255 255 255
-0.00184643 0.000279884 0.00481547 255 255 255
-0.00180946 0.000309929 0.00484591 255 255 255
-0.00115179 0.000472107 0.00508791 255 255 255
-0.00100689 0.000507887 0.00513616 255 255 255
-0.00105577 0.00051056 0.00513061 255 255 255
-0.00108098 0.000509664 0.00512708 255 255 255
0.00142041 0.000961941 0.00506174 255 255 255
-0.00177207 0.00039631 0.00488054 255 255 255
-0.00161745 0.000470666 0.00494059 255 255 255
-0.00100633 0.000613604 0.00518768 255 255 255
-0.00105497 0.000620539 0.00517526 255 255 255
-0.00146091 0.000549361 0.00499377 255 255 255
-0.00076859 0.00073274 0.00521413 255 255 255
-0.00144691 0.000764078 0.00508056 255 255 255
-0.00138032 0.000813264 0.00511602 255 255 255
-0.0012803 0.000872196 0.00515298 255 255 255
-0.00151916 0.000823381 0.00509547 255 255 255
-0.000128923 0.00109931 0.00484445 255 255 255
-0.00151305 0.000873861 0.00509978 255 255 255
0.000995875 0.00139755 0.00391956 255 255 255
-0.00251065 0.00115832 0.0045298 255 255 255
-0.000761808 0.00144693 0.00399869 255 255 255
0.00212359 -0.00184768 0.00573277 255 255 255
0.00218504 -0.00144617 0.00591522 255 255 255
0.00226441 -0.00125795 0.00579668 255 255 255
6.76298e-05 -0.00117397 0.00545408 255 255 255
-0.000197059 -0.00122576 0.0056691 255 255 255
0.00159942 -0.000958727 0.00553112 255 255 255
0.0014833 -0.000952609 0.00551328 255 255 255
0.00146066 -0.00088622 0.00547761 255 255 255
0.00157373 -0.000960466 0.00593307 255 255 255
-0.00110864 -0.00087212 0.00518867 255 255 255
0.00217844 -0.000346649 0.00541599 255 255 255
-2.28922e-05 -0.000503764 0.0051257 255 255 255
0.00166335 -0.000170923 0.00537761 255 255 255
0.000253712 -0.00020837 0.00505991 255 255 255
0.000736152 -0.000125855 0.00521359 255 255 255
0.00110603 -5.27471e-05 0.00528596 255 255 255
5.13286e-06 -0.000156468 0.00500913 255 255 255
0.00204035 3.96891e-05 0.00562386 255 255 255
0.00192933 6.98805e-05 0.00558858 255 255 255
-0.000357845 -0.000148099 0.00495638 255 255 255
0.00133736 6.38197e-05 0.00543973 255 255 255
0.00125273 9.65907e-05 0.00540763 255 255 255
0.00118951 8.90205e-05 0.00544869 255 255 255
-1.19673e-05 -3.40761e-05 0.00506719 255 255 255
0.000635234 3.97614e-05 0.00525553 255 255 255
-0.000178172 -4.53076e-05 0.00504981 255 255 255
-0.000612486 -8.56737e-05 0.00492231 255 255 255
-0.000904385 -0.000108536 0.00485407 255 255 255
0.00209567 0.000334485 0.00574701 255 255 255
-0.000628383 2.94304e-05 0.00496633 255 255 255
-0.00050315 5.34517e-05 0.00498591 255 255 255
-0.000899576 1.43193e-05 0.00488875 255 255 255
-0.00177395 -9.02195e-05 0.00523388 255 255 255
-0.00181702 -8.88208e-05 0.0052431 255 255 255
0.00224252 0.000525519 0.00577367 255 255 255
0.000237078 0.000242071 0.00522095 255 255 255
-0.00112788 5.738e-05 0.00487246 255 255 255
0.00134705 0.00042698 0.00559302 255 255 255
-0.000907071 0.000107214 0.00492997 255 255 255
6.00001e-05 0.000265024 0.00520176 255 255 255
0.000367941 0.000315586 0.00531119 255 255 255
-0.00114622 0.000106194 0.00489039 255 255 255
0.000796269 0.000393166 0.00541452 255 255 255
-0.00128017 9.5939e-05 0.00485364 255 255 255
0.00019525 0.000311997 0.00525813 255 255 255
0.0003689 0.000340705 0.00533234 255 255 255
0.00144081 0.000510457 0.005562 255 255 255
0.000881491 0.000439937 0.00544996 255 255 255
-0.00125345 0.000116119 0.00486533 255 255 255
-0.00114731 0.000141363 0.00490094 255 255 255
-0.00131383 0.000131063 0.00486145 255 255 255
-0.00124587 0.000136706 0.00486555 255 255 255
-0.0013881 0.000160211 0.00485879 255 255 255
-0.000253086 0.000366765 0.00519975 255 255 255
-0.000518112 0.000323742 0.00509631 255 255 255
-0.00107022 0.000243081 0.0049537 255 255 255
-0.000399702 0.000379166 0.00517049 255 255 255
-0.00129063 0.000230697 0.00490351 255 255 255
-0.00131283 0.000246563 0.0049082 255 255 255
-0.00152987 0.00022066 0.00485706 255 255 255
2.87515e-05 0.000499742 0.00530385 255 255 255
0.00201694 0.000822315 0.00518399 255 255 255
-0.00100441 0.000357542 0.00509355 255 255 255
-0.00108278 0.000359577 0.00506322 255 255 255
0.000965573 0.000730355 0.00557468 255 255 255
-0.000815753 0.000433446 0.00508788 255 255 255
0.000194433 0.000644734 0.00538804 255 255 255
-0.000508268 0.000519232 0.00518313 255 255 255
-0.00205528 0.000244795 0.00477963 255 255 255
-0.00150988 0.000347949 0.00490157 255 255 255
-0.00190306 0.000290671 0.00480984 255 255 255
-0.00105803 0.000464056 0.00510342 255 255 255
-0.00110442 0.000466703 0.0051068 255 255 255
-0.000830326 0.00051235 0.00511236 255 255 255
0.00134278 0.000912803 0.00516894 255 255 255
0.00109056 0.000878341 0.00511462 255 255 255
-0.00290438 0.00032682 0.00664493 255 255 255
-0.00205872 0.000329039 0.00480349 255 255 255
-0.00077241 0.000635633 0.00517278 255 255 255
-0.00325008 0.000356087 0.00666104 255 255 255
-0.00305501 0.000367806 0.0065564 255 255 255
-0.000601767 0.00071805 0.0052382 255 255 255
-0.00153345 0.000549859 0.00498002 255 255 255
0.000674325 0.000985452 0.00504284 255 255 255
-0.0016672 0.000537177 0.00494599 255 255 255
-0.00325067 0.000440967 0.00657923 255 255 255
-0.00058068 0.000792249 0.00526244 255 255 255
-0.0016813 0.000557236 0.00493909 255 255 255
-0.00153975 0.000590125 0.00498433 255 255 255
0.00154265 0.00114142 0.00459268 255 255 255
0.000255386 0.000986284 0.00508222 255 255 255
-0.0020129 0.000538641 0.00487365 255 255 255
0.000478714 0.00104468 0.00488946 255 255 255
0.00137227 0.0011776 0.00450041 255 255 255
-0.00205105 0.000613238 0.00490526 255 255 255
-0.00154791 0.000760339 0.00504492 255 255 255
-0.00126694 0.000845539 0.00514536 255 255 255
-0.0020472 0.00066738 0.00491817 255 255 255
-0.000334169 0.00103407 0.00496143 255 255 255
-0.0012446 0.000887553 0.00515995 255 255 255
-0.00311531 0.000669499 0.00602853 255 255 255
0.0012537 0.00130466 0.00420129 255 255 255
0.00173214 0.00136338 0.00392594 255 255 255
-0.00204517 0.000753612 0.00496663 255 255 255
-0.00202153 0.000904597 0.00501239 255 255 255
0.000977422 0.00141212 0.00397888 255 255 255
0.00115064 0.00151286 0.00375869 255 255 255
-0.00130084 0.00118579 0.00467405 255 255 255
-0.000487023 0.00131165 0.00431016 255 255 255
0.000832158 0.00152586 0.00370586 255 255 255
0.00066947 0.00151501 0.0037128 255 255 255
-0.00183367 0.00116983 0.00459966 255 255 255
-0.00201063 0.00116137 0.00468288 255 255 255
-0.00206375 0.00116308 0.00465402 255 255 255
-0.00147691 0.00132545 0.00416165 255 255 255
-0.00249064 0.0012121 0.00442934 255 255 255
0.00211378 -0.00177721 0.00556637 255 255 255
0.00204322 -0.00136136 0.00575382 255 255 255
0.00214646 -0.00126938 0.00571867 255 255 255
0.00217266 -0.00122587 0.00570069 255 255 255
0.00139964 -0.000943561 0.00550201 255 255 255
0.00133858 -0.00093865 0.00549741 255 255 255
-0.000277196 -0.000552405 0.00508477 255 255 255
-0.000251819 -0.000539844 0.00509937 255 255 255
6.97182e-06 -0.000505199 0.00512129 255 255 255
0.00223172 -0.000375842 0.00540181 255 255 255
0.00230893 -0.000314833 0.00479256 255 255 255
0.00220292 -0.000340138 0.0054004 255 255 255
0.00131363 -0.000220586 0.00525041 255 255 255
0.00118486 -0.000207872 0.00524804 255 255 255
0.00201379 -0.000203019 0.00541659 255 255 255
0.0011528 -0.000184427 0.00526041 255 255 255
0.000425315 -0.000170957 0.00510178 255 255 255
0.00127447 -0.000175304 0.00527946 255 255 255
-0.000459133 -0.000137026 0.00494033 255 255 255
-0.000718956 -0.000116332 0.00490162 255 255 255
0.000900029 -0.000135089 0.00520424 255 255 255
0.00169684 -0.000145834 0.00538267 255 255 255
0.000611682 -9.88665e-05 0.00570335 255 255 255
-0.00137497 -5.52301e-05 0.00478847 255 255 255
1.84792e-05 -6.75166e-05 0.00504656 255 255 255
0.00088728 -7.17871e-05 0.00525222 255 255 255
0.00166099 -3.1278e-05 0.00541071 255 255 255
0.000166353 -3.46994e-06 0.00509494 255 255 255
0.00203171 1.31685e-05 0.00560001 255 255 255
0.00166437 1.31733e-05 0.0054328 255 255 255
0.00233006 3.22459e-05 0.00558141 255 255 255
0.0016548 4.29891e-05 0.00545005 255 255 255
0.00136033 6.02281e-05 0.0054023 255 255 255
0.00215512 6.56909e-05 0.00553561 255 255 255
0.000469984 7.49525e-05 0.00527286 255 255 255
0.00203578 0.000153098 0.0056496 255 255 255
0.00165524 0.000170136 0.00550554 255 255 255
0.00182721 0.00017206 0.00557131 255 255 255
0.000365849 0.000177932 0.00529048 255 255 255
0.000191697 0.000185699 0.00519258 255 255 255
0.000223088 0.000184169 0.00519307 255 255 255
-0.000818289 0.000182191 0.0049979 255 255 255
0.00160808 0.00023569 0.00552558 255 255 255
0.00111609 0.000239869 0.0054492 255 255 255
-0.000199154 0.000236949 0.00518839 255 255 255
0.00011535 0.000245695 0.00520437 255 255 255
0.00131577 0.000268791 0.00555165 255 255 255
-0.000814194 0.000251981 0.00500576 255 255 255
0.000226952 0.000264888 0.00522644 255 255 255
-0.00167702 0.000275492 0.00484844 255 255 255
0.00163513 0.000316226 0.00554635 255 255 255
0.000275269 0.000331354 0.00525533 255 255 255
-0.000198226 0.000362211 0.00523782 255 255 255
0.000189779 0.000405086 0.00528891 255 255 255
-0.000196629 0.000408881 0.00525363 255 255 255
-0.0020588 0.000392574 0.00481885 255 255 255
0.00211728 0.000457773 0.00569109 255 255 255
0.000483951 0.000450449 0.00542739 255 255 255
0.00102671 0.000447035 0.00546211 255 255 255
0.00218133 0.000488271 0.00573334 255 255 255
0.00221129 0.000486451 0.00572481 255 255 255
0.000190446 0.000481804 0.00530515 255 255 255
9.07315e-05 0.000497249 0.00529597 255 255 255
0.00211145 0.000546999 0.00573839 255 255 255
0.00198148 0.000560695 0.00573763 255 255 255
-0.000191959 0.000539102 0.00531632 255 255 255
0.00308514 0.000589346 0.00586284 255 255 255
0.00148622 0.00057591 0.00563039 255 255 255
-0.000399362 0.000562934 0.00529968 255 255 255
0.0015357 0.000640938 0.00565597 255 255 255
-0.000594599 0.000622302 0.00520679 255 255 255
-0.00110274 0.000621469 0.00516571 255 255 255
0.000292402 0.000640786 0.00540448 255 255 255
-0.00080125 0.000626163 0.00516559 255 255 255
0.000329075 0.000699902 0.00543417 255 255 255
0.00235407 0.000780995 0.00541099 255 255 255
-0.000275624 0.00102668 0.0049445 255 255 255
0.000761645 0.00103182 0.00491688 255 255 255
0.00149828 0.00110579 0.00467785 255 255 255
0.00124638 0.0013336 0.0041032 255 255 255
0.000854716 0.00148126 0.00378046 255 255 255
0.000104311 0.00154258 0.00374435 255 255 255
-0.000160599 -0.00119041 0.00544483 255 255 255
0.00129972 -0.000935742 0.00547794 255 255 255
0.00145638 -0.000945428 0.00551058 255 255 255
0.00157035 -0.00094767 0.00552925 255 255 255
0.00144851 -0.000968173 0.0058199 255 255 255
0.00133591 -0.000896023 0.00547619 255 255 255
0.00153988 -0.000921407 0.00551092 255 255 255
0.00156091 -0.00092559 0.00551303 255 255 255
0.00164206 -0.000901167 0.00551602 255 255 255
-0.000135512 -0.000524553 0.00538928 255 255 255
-0.00135381 -6.54079e-05 0.00479192 255 255 255
0.00145735 -0.000319098 0.00524665 255 255 255
0.000554704 -0.000183082 0.00512083 255 255 255
0.000750687 -0.000210583 0.00515947 255 255 255
0.0018894 -0.000333151 0.00535014 255 255 255
-0.00202522 0.000238059 0.0047392 255 255 255
0.000437979 -7.25011e-05 0.00515305 255 255 255
-0.000574901 0.000174711 0.00505721 255 255 255
-0.000404617 0.000160226 0.00503876 255 255 255
0.00105933 -3.93351e-05 0.00528714 255 255 255
-0.00117737 0.000278665 0.00495355 255 255 255
0.00111481 -2.7568e-05 0.00530184 255 255 255
0.000787513 7.55373e-05 0.00528114 255 255 255
0.00193875 -6.14291e-05 0.00552189 255 255 255
-0.00097932 0.000345504 0.00502458 255 255 255
0.000910007 0.000127428 0.00533032 255 255 255
0.00123666 8.52022e-05 0.00542512 255 255 255
-9.99324e-05 0.000277826 0.00520901 255 255 255
0.00190144 2.66571e-05 0.00554728 255 255 255
0.00223271 -1.91187e-05 0.00553287 255 255 255
-0.00198831 0.000600567 0.0048772 255 255 255
-0.00168133 0.000558834 0.00495979 255 255 255
-0.000335799 0.000373611 0.00518077 255 255 255
0.00194222 4.76679e-05 0.00555993 255 255 255
0.00270446 -6.1279e-06 0.00699291 255 255 255
-0.000271364 0.000396308 0.00528309 255 255 255
-0.00204195 0.000675162 0.00493282 255 255 255
0.00160697 0.000174431 0.00547743 255 255 255
0.000503038 0.000354533 0.00539898 255 255 255
0.00301327 5.53231e-05 0.00705491 255 255 255
0.000961139 0.000299813 0.00540105 255 255 255
0.00111468 0.000284686 0.00549809 255 255 255
0.00190609 0.000166235 0.00560568 255 255 255
0.00273769 9.23593e-05 0.00674694 255 255 255
-0.00107863 0.000629115 0.00517403 255 255 255
0.00195154 0.000207176 0.00562249 255 255 255
0.00046395 0.000447858 0.00540871 255 255 255
0.00027673 0.0004855 0.00533365 255 255 255
0.000844723 0.000412576 0.00541667 255 255 255
-0.00166008 0.000847033 0.00506934 255 255 255
0.00078409 0.000493638 0.00544136 255 255 255
0.000900754 0.000478828 0.00546887 255 255 255
-5.22474e-05 0.000675432 0.00534423 255 255 255
0.00144149 0.000441011 0.00553885 255 255 255
-0.00204506 0.000992396 0.00506523 255 255 255
-0.00122057 0.000870451 0.00512998 255 255 255
-0.000298685 0.00077725 0.00533755 255 255 255
0.000886359 0.000596369 0.00550065 255 255 255
0.00191237 0.000474105 0.00565956 255 255 255
0.00157705 0.000599742 0.00563867 255 255 255
0.00135891 0.00064818 0.00560728 255 255 255
0.000969136 0.000728616 0.00564682 255 255 255
0.00228312 0.000529191 0.00574672 255 255 255
-0.00198913 0.00116748 0.00463619 255 255 255
-0.00172989 0.00116324 0.00463832 255 255 255
6.68277e-06 0.0010111 0.00503672 255 255 255
0.000130546 0.00098891 0.00502431 255 255 255
0.00025714 0.000973931 0.00504256 255 255 255
0.00111034 0.00088372 0.00516427 255 255 255
0.0028751 0.000617306 0.00552437 255 255 255
0.00181734 0.000823019 0.00527682 255 255 255
0.0020953 0.000807425 0.00539148 255 255 255
0.000951132 0.0009878 0.00497976 255 255 255
0.00135123 0.000986993 0.00494406 255 255 255
0.00139015 0.00106013 0.00479344 255 255 255
-0.00142717 0.00144771 0.00381898 255 255 255
0.00148873 0.00113638 0.00463426 255 255 255
0.0013403 0.0012161 0.0044056 255 255 255
-0.000121254 -0.00176234 0.0055898 255 255 255
-7.52465e-05 -0.00166277 0.00567079 255 255 255
-7.10132e-05 -0.00119775 0.00548721 255 255 255
0.000937203 -0.00146815 0.00658937 255 255 255
4.51449e-05 -0.001013 0.00541613 255 255 255
0.00132859 -0.000939517 0.00550687 255 255 255
0.00138351 -0.000928502 0.00550963 255 255 255
0.00151018 -0.000949283 0.00553582 255 255 255
0.00125451 -0.00086284 0.00547574 255 255 255
0.00130467 -0.000863861 0.00547854 255 255 255
-0.00145172 7.55474e-05 0.00485901 255 255 255
-0.00172836 0.000324921 0.00489993 255 255 255
-0.00178605 0.000521524 0.00502281 255 255 255
0.0020092 -0.000275871 0.00539612 255 255 255
0.00100934 4.41557e-05 0.00530226 255 255 255
-0.00258014 0.00120658 0.00457425 255 255 255
0.00200085 -0.000295951 0.00811137 255 255 255
-0.00127245 0.000925698 0.00518634 255 255 255
0.00235727 -0.00030702 0.00798102 255 255 255
-0.00187497 0.00121839 0.00451628 255 255 255
-0.00157732 0.00123151 0.00464047 255 255 255
-0.00130911 0.00119556 0.00465265 255 255 255
0.00140764 0.000268067 0.00550136 255 255 255
-0.00156594 0.00138295 0.00409104 255 255 255
0.00144499 0.000514335 0.00559041 255 255 255
-0.00127423 0.00148373 0.00381245 255 255 255
0.00108826 0.000671908 0.00559435 255 255 255
0.00208913 0.000336554 0.00561622 255 255 255
0.000490323 0.000964741 0.00506659 255 255 255
0.00232363 0.000385174 0.00570881 255 255 255
0.00191632 0.000609707 0.00570767 255 255 255
0.00196276 0.00059739 0.00570764 255 255 255
0.00129699 0.000899433 0.00512527 255 255 255
0.000572059 0.0013703 0.00410187 255 255 255
0.00210314 -0.00176714 0.00561507 255 255 255
-0.00028637 -0.000486906 0.00511529 255 255 255
0.00145179 -0.000948147 0.00552371 255 255 255
0.00223294 -0.00118698 0.00595395 255 255 255
0.00224726 -0.00105245 0.00602507 255 255 255
0.00229747 -0.000965902 0.00586108 255 255 255
0.00226902 -0.000933853 0.00602365 255 255 255
0.0022349 -0.000959215 0.00622246 255 255 255
0.00228544 -0.000886254 0.00580823 255 255 255
0.00223066 -0.000944365 0.00632535 255 255 255
0.00220592 -0.000948176 0.00640906 255 255 255
0.00230487 -0.000844528 0.00584693 255 255 255
0.000628141 -0.00015442 0.00517833 255 255 255
0.000318932 -2.51936e-06 0.00514339 255 255 255
0.00220248 -0.000849407 0.00666942 255 255 255
0.00224545 -0.000814455 0.00641354 255 255 255
0.00227313 -0.000799495 0.00625813 255 255 255
0.00231253 -0.000743473 0.00579039 255 255 255
0.00228505 -0.000749014 0.00592732 255 255 255
0.00231323 -0.000714979 0.00577979 255 255 255
0.00226253 -0.000730669 0.00620486 255 255 255
0.00231656 -0.000699269 0.00588618 255 255 255
0.0021942 -0.000752698 0.00670726 255 255 255
0.00224543 -0.000687603 0.00635455 255 255 255
-0.00271631 0.00157295 0.00377112 255 255 255
0.00224409 -0.000668739 0.00655384 255 255 255
0.00176933 -0.000595659 0.0086807 255 255 255
-0.00167963 0.00138324 0.00410149 255 255 255
0.00232231 -0.00047464 0.00593062 255 255 255
-0.00151515 0.00141308 0.00398992 255 255 255
0.0023468 -0.000383325 0.00582137 255 255 255
0.0023479 -0.000362304 0.00594144 255 255 255
0.0019349 -0.000370961 0.00818421 255 255 255
-0.00045987 0.00106149 0.00375959 255 255 255
-0.00105017 0.00126006 0.00454587 255 255 255
-0.00104992 0.00130432 0.00429785 255 255 255
-0.000863083 0.00124281 0.00461048 255 255 255
0.00222906 -0.000297117 0.00681822 255 255 255
0.00237541 -0.000250951 0.00561975 255 255 255
0.00236045 -0.000251882 0.00579244 255 255 255
0.00235736 -0.000205682 0.00573193 255 255 255
-0.000189167 0.00110945 0.00484568 255 255 255
7.01927e-05 0.0010001 0.00499317 255 255 255
0.00231902 -0.000144782 0.00625111 255 255 255
0.00235998 -0.000113802 0.00600391 255 255 255
-0.000454857 0.00134862 0.00424498 255 255 255
0.00242725 -0.000182043 0.00769043 255 255 255
0.00229529 -2.96086e-05 0.00660082 255 255 255
0.00241451 -4.35286e-05 0.00558786 255 255 255
0.00101119 0.00070379 0.00554993 255 255 255
0.0026103 -0.000157164 0.00742537 255 255 255
0.00234313 3.30153e-05 0.00612157 255 255 255
0.000765159 0.000917485 0.00508925 255 255 255
0.0023932 7.07612e-05 0.0058468 255 255 255
0.000639178 0.00106754 0.00484089 255 255 255
0.00238542 0.000129026 0.00589747 255 255 255
0.00238905 0.000155067 0.00585858 255 255 255
0.00114803 0.000879722 0.00516116 255 255 255
0.00215454 0.000373053 0.005653 255 255 255
0.00268346 8.05658e-05 0.00698279 255 255 255
0.00242315 0.000230784 0.00575234 255 255 255
9.50654e-05 0.00153723 0.00364349 255 255 255
0.000912262 0.00112298 0.00464401 255 255 255
0.00135078 0.000894668 0.00517351 255 255 255
0.0029202 4.44394e-05 0.00709207 255 255 255
0.000625004 0.00142841 0.00385537 255 255 255
0.00140229 0.00106324 0.00479578 255 255 255
0.00276214 0.000328639 0.0063494 255 255 255
0.000985305 0.00141327 0.0037532 255 255 255
0.00280106 0.000474848 0.00603573 255 255 255
0.00279869 0.000501436 0.00599266 255 255 255
0.000898465 0.00161985 0.00347197 255 255 255
