ply
format ascii 1.0
element vertex 1133
property float x
property float y
property float z
property uchar red
property uchar green
property uchar blue
end_header
-0.0225298 0.00817626 0.164015 255 255 255
-0.00602934 0.00705252 0.165123 255 255 255
-0.0422547 0.0233631 0.127737 255 255 255
-0.0403596 0.0169436 0.14682 255 255 255
-0.0371119 0.0122357 0.165505 255 255 255
-0.017746 0.010145 0.170415 255 255 255
0.0372703 0.0109043 0.157841 255 255 255
-0.0453324 0.0306061 0.111493 255 255 255
-0.0411131 0.0213376 0.137766 255 255 255
-0.0397694 0.0188982 0.150035 255 255 255
-0.0284685 0.013247 0.169084 255 255 255
-0.0161618 0.0105081 0.17248 255 255 255
-0.0172565 0.0108058 0.174873 255 255 255
-0.0137772 0.0103417 0.174501 255 255 255
-0.00214796 0.00912406 0.173353 255 255 255
-0.0418731 0.0263051 0.132073 255 255 255
-0.0416703 0.0251217 0.134229 255 255 255
-0.0407564 0.0228581 0.144086 255 255 255
-0.0152575 -0.0345297 0.346916 255 255 255
-0.0132049 -0.0391721 0.35547 255 255 255
-0.00770069 -0.0474933 0.392762 255 255 255
-0.00770069 -0.0474933 0.392762 255 255 255
-0.0399547 0.0237191 0.149435 255 255 255
-0.0376314 0.0184818 0.165705 255 255 255
-0.00532597 -0.0495278 0.406407 255 255 255
-0.00166127 -0.0563509 0.442359 255 255 255
-0.0430277 0.0318851 0.12325 255 255 255
-0.023937 -0.0102986 0.279144 255 255 255
-0.023937 -0.0102986 0.279144 255 255 255
-0.0180583 -0.0201633 0.325085 255 255 255
-0.0143658 -0.0267285 0.348464 255 255 255
-0.0410208 0.028924 0.139801 255 255 255
-0.040987 0.0289574 0.139711 255 255 255
-0.0413388 0.0309599 0.135656 255 255 255
-0.039527 0.0267109 0.151407 255 255 255
-0.0309754 0.0092796 0.221919 255 255 255
-0.0284507 0.00381324 0.241721 255 255 255
-0.0284816 0.00374971 0.241869 255 255 255
-0.0264776 -0.000376751 0.255801 255 255 255
-0.00481409 -0.036823 0.41464 255 255 255
0.0444029 0.0217729 0.163204 255 255 255
-0.0426369 0.0350436 0.126573 255 255 255
-0.0398732 0.0297519 0.149328 255 255 255
0.0492934 0.023857 0.162381 255 255 255
-0.0448945 0.0395824 0.114478 255 255 255
-0.0432145 0.0377737 0.123748 255 255 255
-0.040849 0.0339559 0.138421 255 255 255
-0.0408124 0.0324928 0.142395 255 255 255
0.022842 -0.0390949 0.461312 255 255 255
-0.0349128 0.0247522 0.187147 255 255 255
-0.0340529 0.0241415 0.194768 255 255 255
-0.0275534 0.0123834 0.249571 255 255 255
-0.0242543 0.00482943 0.279015 255 255 255
-0.0182811 -0.00226633 0.327939 255 255 255
0.0447185 0.0268029 0.16596 255 255 255
-0.0407155 0.0368336 0.142612 255 255 255
-0.0352057 0.0279907 0.184784 255 255 255
-0.0251417 0.0109507 0.269303 255 255 255
-0.0251417 0.0109507 0.269303 255 255 255
-0.0251773 0.0112269 0.27154 255 255 255
-0.0251773 0.0112269 0.27154 255 255 255
-0.0431855 0.0426615 0.124571 255 255 255
-0.0359673 0.0326415 0.179493 255 255 255
-0.0270991 0.0193413 0.257299 255 255 255
-0.0355516 0.0331429 0.183061 255 255 255
-0.0229821 0.0181946 0.287185 255 255 255
-0.0409696 0.0438892 0.137863 255 255 255
-0.0329082 0.031943 0.206259 255 255 255
-0.0420755 0.0483089 0.132189 255 255 255
-0.0441319 0.0504607 0.119362 255 255 255
-0.0441319 0.0504607 0.119362 255 255 255
-0.0401759 0.0468128 0.147575 255 255 255
-0.0399346 0.0464963 0.147506 255 255 255
-0.0386438 0.0466996 0.155486 255 255 255
-0.0340278 0.04149 0.194193 255 255 255
-0.0332174 0.039933 0.204426 255 255 255
-0.0443355 0.0516472 0.118579 255 255 255
-0.0444565 0.0523296 0.118661 255 255 255
-0.0434194 0.0510141 0.1243 255 255 255
-0.0397979 0.0500445 0.149937 255 255 255
-0.0368293 0.0476181 0.172123 255 255 255
-0.0360807 0.0451011 0.177552 255 255 255
-0.0403426 0.0504983 0.145722 255 255 255
-0.00636034 -0.203129 0.388387 255 255 255
-0.0417176 -0.02609 0.13574 255 255 255
-0.0309544 -0.0219331 0.137642 255 255 255
-0.0450657 -0.00273517 0.11473 255 255 255
0.0381987 -0.0228858 0.14787 255 255 255
-0.0453461 0.00411797 0.112082 255 255 255
-0.0180191 -0.0150483 0.146971 255 255 255
0.0455367 -0.0182453 0.14432 255 255 255
0.0455367 -0.0182453 0.14432 255 255 255
0.0503223 -0.0169032 0.145383 255 255 255
0.00617143 -0.0108646 0.150909 255 255 255
0.0401303 -0.00908148 0.14331 255 255 255
-0.0463088 0.012987 0.106815 255 255 255
-0.0460642 0.0129061 0.108242 255 255 255
-0.0461045 0.0144665 0.107864 255 255 255
0.00847482 -0.00947452 0.157764 255 255 255
0.0164024 -0.0061138 0.152393 255 255 255
-0.0383707 -0.00253611 0.155843 255 255 255
-0.045762 0.0193662 0.110413 255 255 255
-0.0415638 0.00807557 0.139052 255 255 255
-0.0382143 0.00200322 0.151976 255 255 255
0.00743195 -0.0032071 0.161537 255 255 255
0.0206506 -0.00109191 0.158265 255 255 255
0.02066 -0.00111478 0.158305 255 255 255
0.0389692 0.00143577 0.15188 255 255 255
-0.0382783 0.00270423 0.158645 255 255 255
-0.0282738 0.00376032 0.16055 255 255 255
-0.0267367 0.00366641 0.160161 255 255 255
-0.0214171 0.00515154 0.160489 255 255 255
-0.0149071 0.00254901 0.164412 255 255 255
-0.0406675 0.0126153 0.144898 255 255 255
-0.00235505 0.00683867 0.162498 255 255 255
-0.00234315 0.00687369 0.162446 255 255 255
-0.011002 0.00698116 0.166492 255 255 255
-0.00928991 0.00721819 0.168635 255 255 255
-0.00209023 0.00741941 0.16317 255 255 255
-0.0407271 0.0198595 0.141773 255 255 255
-0.0230596 0.0105457 0.166127 255 255 255
-0.0124769 0.00739328 0.176456 255 255 255
0.0291234 0.00982457 0.160743 255 255 255
0.0392605 0.0101913 0.156607 255 255 255
-0.0179284 0.0115098 0.170413 255 255 255
-0.0159241 0.0102216 0.171843 255 255 255
-0.0159578 0.0102396 0.171802 255 255 255
-0.0409937 0.0229186 0.14058 255 255 255
-0.0123048 -0.0409085 0.360995 255 255 255
-0.0143369 -0.0347584 0.34813 255 255 255
-0.00144288 -0.0679214 0.445666 255 255 255
-0.0306698 0.0171286 0.172755 255 255 255
-0.0209231 -0.0202202 0.301085 255 255 255
-0.0212519 -0.0181781 0.300238 255 255 255
-0.0192036 -0.0204006 0.312513 255 255 255
-0.00219903 -0.0556378 0.435598 255 255 255
0.010426 -0.0835944 0.548712 255 255 255
0.0459314 0.0178914 0.160028 255 255 255
-0.0312336 0.018071 0.173572 255 255 255
-0.0243873 -0.00786201 0.27643 255 255 255
-0.0220106 -0.011672 0.292933 255 255 255
-0.0407886 0.0290562 0.140418 255 255 255
-0.03042 0.00798954 0.226008 255 255 255
-0.011819 -0.0249586 0.366401 255 255 255
-0.0417658 0.0332208 0.133678 255 255 255
-0.0326614 0.0183254 0.205858 255 255 255
-0.0258719 0.00812624 0.263757 255 255 255
-0.0141295 -0.00811688 0.354813 255 255 255
-0.0397632 0.0343302 0.149951 255 255 255
-0.0321542 0.0249395 0.210616 255 255 255
-0.0287 0.0181839 0.239354 255 255 255
-0.0445124 0.0433813 0.116976 255 255 255
-0.0205844 0.00676347 0.310814 255 255 255
-0.0395488 0.0393653 0.152366 255 255 255
-0.0232169 0.0169183 0.288454 255 255 255
-0.0299341 0.0294824 0.230647 255 255 255
-0.0388393 0.0420841 0.15514 255 255 255
-0.0360442 0.040164 0.178812 255 255 255
-0.032416 0.0377268 0.207799 255 255 255
-0.0311874 0.035951 0.218613 255 255 255
-0.0430085 0.0499945 0.128104 255 255 255
0.0529995 0.0407532 0.170674 255 255 255
0.0530044 0.0407495 0.170678 255 255 255
-0.0408343 0.0488591 0.143309 255 255 255
-0.0398564 0.0486842 0.149473 255 255 255
-0.0398592 0.0486826 0.149475 255 255 255
-0.0358578 0.0470659 0.179174 255 255 255
-0.0358761 0.047049 0.17926 255 255 255
-0.0355215 0.0467391 0.179899 255 255 255
-0.0434665 0.052617 0.123881 255 255 255
-0.0434665 0.052617 0.123881 255 255 255
-0.0427956 -0.0177059 0.132676 255 255 255
-0.0434415 -0.00972306 0.125272 255 255 255
-0.0451337 -0.00193607 0.113976 255 255 255
-0.014128 -0.0209947 0.144715 255 255 255
-0.00992141 -0.0186942 0.145953 255 255 255
-0.0394891 -0.014174 0.145468 255 255 255
-0.0074071 -0.0158489 0.147937 255 255 255
-0.00741734 -0.0158592 0.147949 255 255 255
-0.0322057 -0.0130124 0.145831 255 255 255
-0.00406576 -0.0148392 0.148811 255 255 255
0.0209149 -0.0117575 0.147605 255 255 255
-0.0445374 0.00910364 0.113328 255 255 255
0.0331493 -0.00786558 0.147881 255 255 255
0.0224625 -0.00624261 0.151359 255 255 255
-0.0438811 0.0104715 0.119785 255 255 255
0.0245518 -0.00113137 0.154801 255 255 255
-0.0455078 0.0208136 0.11148 255 255 255
-0.0371548 0.00130768 0.159109 255 255 255
-0.018642 0.00384034 0.164483 255 255 255
0.0345136 0.00451892 0.155342 255 255 255
0.0498792 0.00653517 0.150733 255 255 255
0.00504994 0.00631365 0.160338 255 255 255
0.0454771 0.00791852 0.153041 255 255 255
0.0340348 0.00777942 0.157575 255 255 255
-0.0453485 0.0279491 0.111641 255 255 255
-0.0453459 0.0279513 0.111637 255 255 255
-0.00586158 0.00840859 0.170075 255 255 255
-0.0426307 0.0255562 0.127265 255 255 255
-0.0432428 0.0279759 0.122979 255 255 255
-0.043136 0.0292503 0.124332 255 255 255
-0.0154041 -0.0286401 0.340994 255 255 255
-0.00794452 -0.0452468 0.390255 255 255 255
-0.0249682 -0.00883371 0.273064 255 255 255
-0.014161 -0.0281945 0.349638 255 255 255
-0.0442019 0.0343359 0.118004 255 255 255
-0.0396272 0.0273704 0.151304 255 255 255
-0.0281323 0.00402121 0.243529 255 255 255
-0.023614 -0.00502948 0.282231 255 255 255
-0.0412096 0.0326694 0.136534 255 255 255
-0.012088 -0.0229603 0.367829 255 255 255
-0.0312301 0.0170793 0.219595 255 255 255
-0.0291235 0.0188007 0.239295 255 255 255
0.0392254 0.0288061 0.169339 255 255 255
-0.0381385 0.0358046 0.158484 255 255 255
-0.0348347 0.0307232 0.188004 255 255 255
-0.0324286 0.0270551 0.20642 255 255 255
-0.0319977 0.0250043 0.213087 255 255 255
-0.028826 0.0227743 0.241089 255 255 255
0.0827047 0.0247269 0.215271 255 255 255
-0.0390432 0.0401989 0.153877 255 255 255
-0.0393206 0.0405573 0.152794 255 255 255
-0.0382853 0.0406258 0.15793 255 255 255
-0.0362761 0.0360856 0.176586 255 255 255
-0.0342305 0.0357959 0.192179 255 255 255
-0.041299 0.0453576 0.13468 255 255 255
-0.0421038 0.0500709 0.132061 255 255 255
-0.0400566 0.0476131 0.149269 255 255 255
-0.0400566 0.0476131 0.149269 255 255 255
-0.0368953 0.0450081 0.16914 255 255 255
-0.0328414 0.0395002 0.206534 255 255 255
-0.0419165 0.0500809 0.133163 255 255 255
-0.039138 0.049024 0.15362 255 255 255
-0.0360743 0.0458123 0.177911 255 255 255
-0.0355276 0.0453469 0.178173 255 255 255
-0.036139 0.0465622 0.178257 255 255 255
-0.0426361 -0.0219125 0.134937 255 255 255
-0.0413855 -0.0237822 0.13601 255 255 255
-0.0427045 -0.0188884 0.134356 255 255 255
-0.0228864 -0.0199979 0.138133 255 255 255
-0.0303797 -0.0143287 0.144492 255 255 255
-0.0461144 0.00960986 0.106588 255 255 255
-0.0210847 -0.0104469 0.147053 255 255 255
-0.0206517 -0.00776136 0.150257 255 255 255
0.0287396 -0.008446 0.148695 255 255 255
0.0359157 -0.00908513 0.146206 255 255 255
0.0140669 -0.00739027 0.151423 255 255 255
0.0175573 -0.00401738 0.153504 255 255 255
-0.0454925 0.0186265 0.11069 255 255 255
0.0181444 -0.00232389 0.155712 255 255 255
-0.045779 0.0212029 0.109176 255 255 255
-0.0437485 0.0166045 0.11997 255 255 255
-0.043157 0.0177607 0.123712 255 255 255
0.0309314 0.00345042 0.15663 255 255 255
-0.0409661 0.0168536 0.141556 255 255 255
-0.0313447 0.00918804 0.165754 255 255 255
0.00208319 0.00845663 0.164042 255 255 255
0.0473189 0.0127031 0.155498 255 255 255
-0.0366185 0.0141317 0.170055 255 255 255
-0.00614486 -0.0496139 0.399462 255 255 255
-0.0239813 0.0168076 0.171804 255 255 255
-0.0404857 0.0272457 0.143122 255 255 255
-0.0404824 0.0272678 0.143076 255 255 255
-0.00706087 -0.0417313 0.398304 255 255 255
-0.00691303 -0.0353296 0.389039 255 255 255
-0.0313557 0.0105706 0.21551 255 255 255
-0.0106403 -0.0272789 0.374845 255 255 255
-0.0408945 0.0319533 0.145033 255 255 255
-0.0339945 0.0242006 0.199093 255 255 255
-0.0248823 0.0081679 0.272121 255 255 255
-0.0313685 0.0242581 0.214138 255 255 255
-0.0409243 0.0395288 0.13893 255 255 255
-0.0403386 0.0393132 0.144949 255 255 255
-0.0397053 0.0411074 0.15247 255 255 255
-0.0429473 0.0491924 0.122151 255 255 255
-0.0407226 0.0467868 0.141412 255 255 255
-0.0441458 0.0522254 0.119195 255 255 255
-0.0438435 0.0523876 0.12335 255 255 255
-0.0369345 0.046571 0.169671 255 255 255
-0.044373 -0.00940969 0.116714 255 255 255
-0.0165159 -0.0185301 0.148569 255 255 255
-0.00931799 -0.0168012 0.147195 255 255 255
-0.0418245 -0.00819763 0.139536 255 255 255
8.33191e-05 -0.0146348 0.148083 255 255 255
0.00503998 -0.0137615 0.1483 255 255 255
0.014209 -0.00792111 0.150515 255 255 255
-0.045387 0.0173369 0.110973 255 255 255
-0.0458029 0.0187475 0.110034 255 255 255
-0.0450407 0.0264749 0.113485 255 255 255
-0.0120041 0.00757047 0.176663 255 255 255
-0.0450867 0.0323988 0.112392 255 255 255
-0.0404035 0.0231795 0.146025 255 255 255
-0.0338637 0.0160546 0.19946 255 255 255
-0.0408024 0.0317101 0.137543 255 255 255
-0.0403521 0.0297777 0.145698 255 255 255
-0.0403737 0.0297487 0.14577 255 255 255
-0.0293673 0.00765418 0.239347 255 255 255
-0.0437721 0.0378722 0.119978 255 255 255
-0.0424727 0.0400266 0.128798 255 255 255
-0.0410509 0.0469387 0.136684 255 255 255
-0.0411253 0.0468655 0.136892 255 255 255
-0.0425635 0.0501871 0.128247 255 255 255
-0.0367089 0.0465347 0.173223 255 255 255
-0.0431558 -0.00653536 0.125308 255 255 255
0.025081 -0.00869522 0.148764 255 255 255
0.0154952 -0.0030204 0.157863 255 255 255
-0.0457847 0.0197999 0.110986 255 255 255
0.0454152 0.00405075 0.150004 255 255 255
-0.0447214 0.0297895 0.114183 255 255 255
-0.0450821 0.0307877 0.113346 255 255 255
-0.0450821 0.0307877 0.113346 255 255 255
-0.0449116 0.0326095 0.115013 255 255 255
-0.0179167 -0.0252418 0.326641 255 255 255
-0.0210111 -0.0182415 0.307465 255 255 255
-0.0432668 0.0339684 0.122167 255 255 255
-0.0360397 0.0336883 0.17956 255 255 255
-0.0439922 0.0496662 0.118838 255 255 255
-0.0442852 0.0506939 0.118039 255 255 255
-0.0431787 0.0498791 0.122781 255 255 255
-0.0431787 0.0498791 0.122781 255 255 255
-0.0411046 0.0479563 0.140135 255 255 255
-0.0394767 0.0471284 0.151007 255 255 255
-0.0363325 0.0456505 0.177155 255 255 255
-0.0241149 -0.0115679 0.145737 255 255 255
-0.0452624 0.0197169 0.111891 255 255 255
-0.0127343 -0.0332077 0.358719 255 255 255
-0.0429296 0.0227735 0.124635 255 255 255
-0.042955 0.0227457 0.124695 255 255 255
-0.0327125 0.0174287 0.202658 255 255 255
-0.0270333 0.0163856 0.269424 255 255 255
-0.0436759 0.0463458 0.120472 255 255 255
0.0413799 0.032937 0.171294 255 255 255
-0.0456421 0.00783149 0.110167 255 255 255
-0.0417216 -0.0260824 0.135734 255 255 255
-0.0414614 -0.0215098 0.138243 255 255 255
0.0472617 -0.0235144 0.13953 255 255 255
-0.0436227 -0.00461465 0.1247 255 255 255
-0.0426062 -0.0107601 0.131794 255 255 255
-0.0163499 -0.0184479 0.14612 255 255 255
-0.0161708 -0.018727 0.147829 255 255 255
-0.042595 -0.00664662 0.134046 255 255 255
-0.0397443 -0.0132104 0.145449 255 255 255
0.0496509 -0.01717 0.143795 255 255 255
0.0496264 -0.0170992 0.143714 255 255 255
0.0510237 -0.0182926 0.143309 255 255 255
-0.000232458 -0.0152271 0.147701 255 255 255
-0.0390507 -0.0108238 0.148618 255 255 255
-0.0185928 -0.0126679 0.148381 255 255 255
-0.00108483 -0.0134084 0.149976 255 255 255
-0.00141854 -0.0134464 0.150631 255 255 255
0.0339704 -0.0131305 0.144057 255 255 255
0.0339704 -0.0131305 0.144057 255 255 255
-0.0468809 0.0191484 0.103768 255 255 255
-0.0451161 0.0139566 0.112381 255 255 255
-0.0395776 -0.00883044 0.150201 255 255 255
-0.0425198 0.00521691 0.132724 255 255 255
0.00564881 -0.0107883 0.152108 255 255 255
0.00882724 -0.0101484 0.151294 255 255 255
0.00777077 -0.00948562 0.152468 255 255 255
0.0403249 -0.0070053 0.144585 255 255 255
0.0403202 -0.00699656 0.144582 255 255 255
-0.0462548 0.0219544 0.104938 255 255 255
-0.0459805 0.0215365 0.10831 255 255 255
-0.0459805 0.0215365 0.10831 255 255 255
-0.0397425 -0.00235459 0.150878 255 255 255
-0.039356 -0.00253065 0.152707 255 255 255
-0.0359575 -0.00454893 0.153948 255 255 255
0.0142485 -0.0064022 0.154136 255 255 255
0.0422485 -0.00353818 0.146416 255 255 255
-0.0418217 0.0118016 0.132564 255 255 255
-0.0244345 -0.00245332 0.154535 255 255 255
-0.0233965 -0.000948268 0.155223 255 255 255
0.016067 -0.00442021 0.154145 255 255 255
0.0160645 -0.00442266 0.154143 255 255 255
-0.0434321 0.0201973 0.119845 255 255 255
-0.0268738 0.000601704 0.157528 255 255 255
0.0213296 -0.00135954 0.155703 255 255 255
-0.0410553 0.0109831 0.141373 255 255 255
0.0149122 -0.000848645 0.161132 255 255 255
0.0204401 -0.00123409 0.15733 255 255 255
0.0244427 -0.000168864 0.15798 255 255 255
0.0243465 1.10448e-05 0.155848 255 255 255
0.0487118 0.00192161 0.14819 255 255 255
-0.044144 0.0250891 0.117429 255 255 255
-0.0377248 0.00684658 0.159383 255 255 255
-0.0324785 0.00633264 0.163264 255 255 255
0.0128773 0.00219532 0.166222 255 255 255
0.0477477 0.00739775 0.151091 255 255 255
-0.00839333 0.00619559 0.165895 255 255 255
-0.00619891 0.00527754 0.162882 255 255 255
-0.00622795 0.00500617 0.163354 255 255 255
-0.00350467 0.00675821 0.162967 255 255 255
-0.0034302 0.00697236 0.16334 255 255 255
-0.0034302 0.00697236 0.16334 255 255 255
0.0479019 0.0076106 0.151511 255 255 255
0.0481064 0.00784035 0.15193 255 255 255
-0.0444228 0.0321944 0.115615 255 255 255
-0.011189 0.00720025 0.170503 255 255 255
-0.00376256 0.0077231 0.165236 255 255 255
-0.0412052 0.0227413 0.138397 255 255 255
-0.0411908 0.0227338 0.13841 255 255 255
-0.0268612 0.0112826 0.167114 255 255 255
-0.000175794 0.00937418 0.169207 255 255 255
0.00592015 0.00817921 0.167701 255 255 255
0.0422116 0.0122503 0.157679 255 255 255
-0.0387038 0.0184185 0.156964 255 255 255
-0.0117511 0.00752775 0.180194 255 255 255
-0.00212102 0.00917644 0.17324 255 255 255
-0.033645 0.0149646 0.171182 255 255 255
-0.0143311 -0.0512549 0.340369 255 255 255
0.047414 0.0160325 0.157813 255 255 255
-0.0362828 0.0162658 0.171923 255 255 255
-0.0275689 0.0161754 0.171642 255 255 255
-0.0275613 0.0161884 0.17162 255 255 255
-0.0185369 0.0173801 0.171049 255 255 255
-0.024463 -0.0214521 0.276922 255 255 255
-0.017145 -0.0431699 0.326982 255 255 255
0.0406005 0.0168155 0.161223 255 255 255
-0.0326635 0.00806214 0.206922 255 255 255
0.0476884 0.0196969 0.160045 255 255 255
-0.0433589 0.0398638 0.123861 255 255 255
-0.0432208 0.0384229 0.123973 255 255 255
-0.0420648 0.0382601 0.128724 255 255 255
-0.0398201 0.0312539 0.14947 255 255 255
-0.0279276 0.000145247 0.234889 255 255 255
-0.0133846 -0.0425213 0.350221 255 255 255
-0.00307305 -0.0644967 0.425653 255 255 255
0.0357711 0.0210041 0.166054 255 255 255
0.0469385 0.0215028 0.161693 255 255 255
0.0492425 0.0225834 0.161561 255 255 255
0.0492425 0.0225834 0.161561 255 255 255
-0.044791 0.043696 0.115737 255 255 255
-0.0426712 0.0390571 0.127513 255 255 255
-0.0423619 0.0395973 0.128254 255 255 255
-0.0392837 0.0317795 0.154182 255 255 255
-0.00974815 -0.0464194 0.376064 255 255 255
-0.041514 0.0397941 0.131639 255 255 255
-0.0415358 0.0397513 0.131729 255 255 255
-0.0406458 0.0372897 0.143116 255 255 255
-0.0385737 0.0331495 0.155425 255 255 255
-0.0249535 -0.00524501 0.269875 255 255 255
-0.0108339 -0.0392784 0.373072 255 255 255
0.0381555 0.0248235 0.167655 255 255 255
0.0381555 0.0248235 0.167655 255 255 255
0.049734 0.0260267 0.163891 255 255 255
-0.0414621 0.0415415 0.13573 255 255 255
-0.0279821 0.00645913 0.244455 255 255 255
-0.023581 0.000516529 0.284049 255 255 255
-0.035066 0.0303907 0.186577 255 255 255
-0.0334988 0.0266722 0.197493 255 255 255
-0.0274531 0.0124762 0.249262 255 255 255
0.046007 0.0311768 0.167799 255 255 255
0.0465413 0.0324198 0.168371 255 255 255
-0.0374762 0.0394321 0.165256 255 255 255
-0.0419135 0.0489816 0.133509 255 255 255
-0.0366887 0.0393048 0.173613 255 255 255
-0.0332389 0.0323065 0.198432 255 255 255
-0.0324841 0.0318673 0.20693 255 255 255
-0.0312137 0.0302744 0.219017 255 255 255
0.0507341 0.0372484 0.169854 255 255 255
-0.0392055 0.0477612 0.154273 255 255 255
-0.040598 0.0527406 0.141906 255 255 255
-0.0395143 0.0494213 0.153004 255 255 255
-0.0366678 0.0462287 0.171646 255 255 255
-0.0353135 0.0447012 0.181561 255 255 255
-0.0392062 0.0527398 0.152014 255 255 255
-0.0360901 0.0474937 0.178198 255 255 255
-0.0405736 -0.0405583 0.148082 255 255 255
0.0097045 -0.317509 0.497394 255 255 255
-0.0410978 -0.0238347 0.136988 255 255 255
-0.0397841 -0.0242395 0.136763 255 255 255
-0.0179965 -0.1511 0.300743 255 255 255
-0.0426663 -0.0144276 0.133786 255 255 255
-0.0473299 0.0129807 0.100262 255 255 255
0.0514539 -0.021002 0.140384 255 255 255
-0.0440942 0.00151495 0.12199 255 255 255
0.0477744 -0.0168244 0.14415 255 255 255
-0.0418319 -0.00635572 0.137762 255 255 255
-0.00619952 -0.0153316 0.149739 255 255 255
0.0301 -0.0157766 0.144893 255 255 255
-0.0466757 0.0201685 0.104539 255 255 255
0.036144 -0.0106521 0.14467 255 255 255
0.0167242 -0.00885662 0.150261 255 255 255
-0.0196374 -0.0077901 0.154071 255 255 255
0.0287625 -0.00748499 0.149315 255 255 255
0.0138501 -0.00710841 0.153527 255 255 255
0.0346753 -0.00536746 0.149637 255 255 255
-0.0439727 0.0190433 0.119397 255 255 255
0.0260462 -0.000625269 0.155293 255 255 255
-0.0449697 0.0264361 0.114107 255 255 255
-0.0446761 0.0262474 0.11487 255 255 255
-0.0266271 0.00403488 0.160446 255 255 255
-0.0417984 0.0180747 0.134842 255 255 255
-0.0417984 0.0180747 0.134842 255 255 255
-0.0248597 0.00510229 0.161271 255 255 255
-0.0446 0.0294945 0.115517 255 255 255
-0.030398 0.00708937 0.163733 255 255 255
-0.00693424 0.00575626 0.164551 255 255 255
-0.0443003 0.0305705 0.117474 255 255 255
-0.0435001 0.0298909 0.12156 255 255 255
-0.0417889 0.0259146 0.13041 255 255 255
-0.0418265 0.0245585 0.132839 255 255 255
-0.00914667 0.00682261 0.167767 255 255 255
-0.0419045 0.0280195 0.130051 255 255 255
-0.0412514 0.0245322 0.136902 255 255 255
-0.0129458 0.00771293 0.175146 255 255 255
-0.000922309 0.00880171 0.167426 255 255 255
0.0370603 0.0108474 0.158495 255 255 255
-0.0442889 0.0337103 0.11817 255 255 255
-0.0399035 0.0220139 0.149327 255 255 255
0.0425455 0.0126137 0.157761 255 255 255
0.0448923 0.0132413 0.157065 255 255 255
-0.0422368 0.0335451 0.126433 255 255 255
-0.0170058 0.011032 0.176654 255 255 255
0.0342609 0.0145879 0.162523 255 255 255
0.0489218 0.0165577 0.157545 255 255 255
-0.0238122 -0.0222179 0.278011 255 255 255
-0.016254 -0.0454647 0.332642 255 255 255
-0.0415697 0.0339652 0.134993 255 255 255
-0.0224488 -0.0233792 0.288961 255 255 255
0.0336146 0.0179459 0.165234 255 255 255
-0.0396309 0.0300563 0.150513 255 255 255
-0.0326189 0.00704313 0.212173 255 255 255
-0.0311902 0.00487201 0.218344 255 255 255
-0.0295554 0.000875946 0.230039 255 255 255
-0.0285283 -1.29155e-05 0.240625 255 255 255
-0.026568 -0.00598273 0.254076 255 255 255
-0.0186394 -0.029834 0.31787 255 255 255
-0.0403309 0.0332644 0.145575 255 255 255
-0.032537 0.0112738 0.209643 255 255 255
-0.0263087 -0.00398877 0.254421 255 255 255
-0.0416837 0.0413184 0.13124 255 255 255
0.0364415 0.026693 0.169918 255 255 255
-0.0430645 0.0463451 0.126827 255 255 255
-0.0355827 0.0300789 0.183278 255 255 255
-0.0235799 -0.00129572 0.283507 255 255 255
-0.04182 0.0479171 0.133652 255 255 255
-0.0434886 0.0518691 0.124158 255 255 255
-0.0383417 0.0420382 0.158387 255 255 255
-0.0368469 0.0394909 0.171021 255 255 255
0.0510326 0.0370038 0.169517 255 255 255
-0.0409224 0.0516161 0.139712 255 255 255
-0.033582 0.0386367 0.197935 255 255 255
-0.040075 0.0506857 0.146781 255 255 255
-0.041975 0.0562379 0.132741 255 255 255
-0.039895 0.0528214 0.145387 255 255 255
-0.0403238 0.0540726 0.146056 255 255 255
-0.0373608 0.0492261 0.166663 255 255 255
-0.0402267 0.0544921 0.146206 255 255 255
-0.0439017 -0.00911206 0.120423 255 255 255
-0.0409604 -0.0188397 0.141054 255 255 255
-0.0237732 -0.0190775 0.138962 255 255 255
-0.0217716 -0.0203323 0.141283 255 255 255
0.0509468 -0.0236293 0.139028 255 255 255
-0.0464107 0.0109381 0.104589 255 255 255
-0.0451474 0.00813936 0.11049 255 255 255
-0.0444549 0.00438066 0.116294 255 255 255
-0.0216421 -0.0150698 0.14277 255 255 255
-0.0206422 -0.016448 0.144774 255 255 255
-0.0417477 -0.00999411 0.138994 255 255 255
0.0295471 -0.0170981 0.144849 255 255 255
-0.0447142 0.00981962 0.114038 255 255 255
-0.0421572 -0.00582837 0.135977 255 255 255
-0.0374196 -0.0117771 0.147531 255 255 255
-0.0430619 0.00168071 0.128324 255 255 255
-0.0434497 0.00614516 0.124666 255 255 255
-0.0450336 0.0167111 0.11327 255 255 255
0.0152894 -0.00847097 0.150043 255 255 255
0.0221666 -0.00565397 0.151844 255 255 255
-0.0354093 -0.00126469 0.15695 255 255 255
0.00728948 -0.00598945 0.160412 255 255 255
0.0186315 -0.00398293 0.153108 255 255 255
0.0175239 -0.00185095 0.158108 255 255 255
-0.0405394 0.012071 0.146106 255 255 255
-0.0405394 0.012071 0.146106 255 255 255
-0.0378214 0.00748039 0.160502 255 255 255
-0.0238606 0.00570652 0.161769 255 255 255
-0.0408806 0.0170665 0.141272 255 255 255
-0.0414147 0.0218603 0.135478 255 255 255
-0.0390421 0.0161341 0.154543 255 255 255
-0.0109107 0.00783934 0.174262 255 255 255
-0.00584657 0.008433 0.170047 255 255 255
0.00218933 0.00912713 0.167444 255 255 255
-0.0454066 0.0379633 0.110948 255 255 255
-0.0408622 0.0266964 0.13869 255 255 255
-0.0407538 0.0236407 0.142326 255 255 255
-0.0402422 0.021999 0.147243 255 255 255
-0.00858414 0.00835858 0.174489 255 255 255
-0.00858668 0.00835185 0.174493 255 255 255
-0.0451015 0.0393483 0.112185 255 255 255
-0.0410583 0.027281 0.137722 255 255 255
-0.0401516 0.0245081 0.148254 255 255 255
-0.041383 0.0317939 0.135718 255 255 255
-0.0397471 0.0247001 0.150161 255 255 255
-0.0387982 0.0227564 0.157585 255 255 255
-0.0145154 -0.0458369 0.340385 255 255 255
-0.0427652 0.0377792 0.125321 255 255 255
-0.0404509 0.0291543 0.145097 255 255 255
-0.0327911 0.00620707 0.212181 255 255 255
-0.0235303 -0.0204269 0.281511 255 255 255
-0.016342 -0.0411835 0.335655 255 255 255
-0.0422733 0.037788 0.12755 255 255 255
-0.0394776 0.0310723 0.149958 255 255 255
-0.0216302 -0.0180202 0.292698 255 255 255
0.0379493 0.0209492 0.165132 255 255 255
-0.0406232 0.0338592 0.143208 255 255 255
-0.0351358 0.0213335 0.184949 255 255 255
-0.0260507 -0.00522746 0.259349 255 255 255
-0.0429809 0.0422861 0.124467 255 255 255
-0.0263111 0.000521917 0.258951 255 255 255
-0.0434289 0.0453133 0.121147 255 255 255
-0.0419424 0.041384 0.132271 255 255 255
-0.0374328 0.0313173 0.1686 255 255 255
-0.0332642 0.0271725 0.200686 255 255 255
-0.0377752 0.0388983 0.164927 255 255 255
-0.0426978 0.0527072 0.128586 255 255 255
-0.0422838 0.0520503 0.13108 255 255 255
-0.034506 0.036944 0.190842 255 255 255
-0.0327461 0.033116 0.208535 255 255 255
-0.0400086 0.0501589 0.148279 255 255 255
-0.0400784 0.0515961 0.145177 255 255 255
-0.0415591 0.0557176 0.137166 255 255 255
-0.0397494 0.0529502 0.15047 255 255 255
-0.0429182 -0.0225283 0.135603 255 255 255
-0.0438124 -0.00554154 0.121506 255 255 255
-0.0438124 -0.00554154 0.121506 255 255 255
-0.0464213 0.00988831 0.105938 255 255 255
-0.0350294 -0.0127063 0.146563 255 255 255
-0.0463595 0.0187178 0.105295 255 255 255
-0.0441982 0.0107192 0.118629 255 255 255
-0.0386157 -0.00825972 0.150944 255 255 255
-0.0176351 -0.00998604 0.152037 255 255 255
-0.042874 0.00654594 0.127524 255 255 255
0.0155223 -0.00696259 0.151447 255 255 255
0.015509 -0.00697577 0.151459 255 255 255
0.0205201 -0.00533292 0.151881 255 255 255
0.0360669 -0.00379575 0.149954 255 255 255
-0.0443501 0.0193483 0.117012 255 255 255
0.0188404 -0.002988 0.154368 255 255 255
0.0411098 -0.00156744 0.148181 255 255 255
-0.0415017 0.0103165 0.138513 255 255 255
0.0281939 -0.001181 0.154097 255 255 255
0.0281911 -0.00121008 0.154127 255 255 255
0.013256 0.000303223 0.162627 255 255 255
0.0401856 0.00476225 0.153168 255 255 255
0.0401856 0.00476225 0.153168 255 255 255
0.0412906 0.0058806 0.153011 255 255 255
-0.00740516 0.00725956 0.168547 255 255 255
-0.00405155 0.00756482 0.165082 255 255 255
-0.0144377 0.00838065 0.171971 255 255 255
-0.0425747 0.030549 0.126184 255 255 255
0.0443198 0.0130264 0.156434 255 255 255
-0.0283169 0.0173539 0.17269 255 255 255
-0.0283115 0.0173784 0.172644 255 255 255
-0.0443508 0.0388497 0.118027 255 255 255
-0.0162296 -0.0390017 0.337056 255 255 255
-0.0327118 0.0104988 0.207912 255 255 255
-0.0279563 0.000282377 0.242184 255 255 255
-0.0285941 0.00647432 0.239251 255 255 255
-0.0193665 -0.018831 0.313694 255 255 255
-0.0340647 0.0235027 0.193923 255 255 255
-0.0406612 0.0413807 0.138812 255 255 255
-0.0406912 0.0410581 0.142643 255 255 255
-0.0321007 0.0212439 0.211667 255 255 255
0.0480404 0.0297323 0.1663 255 255 255
-0.0434951 0.0506146 0.122879 255 255 255
-0.0317187 0.0254807 0.216601 255 255 255
-0.0421038 0.0500709 0.132061 255 255 255
-0.0335245 0.0339996 0.196331 255 255 255
-0.0399554 0.0494056 0.14983 255 255 255
-0.0388722 0.0471939 0.154934 255 255 255
0.0476685 0.0398062 0.17302 255 255 255
-0.0393047 0.0498486 0.153938 255 255 255
-0.0407761 0.0536526 0.141987 255 255 255
-0.0437916 0.00475595 0.122621 255 255 255
0.0386471 -0.010015 0.143267 255 255 255
0.038607 -0.00985986 0.143105 255 255 255
0.00698526 -0.0105046 0.150928 255 255 255
0.011403 -0.00381244 0.158776 255 255 255
-0.044398 0.0232224 0.116981 255 255 255
-0.00962342 0.00473833 0.165755 255 255 255
0.0370048 0.0095708 0.157248 255 255 255
-0.0397066 0.0206614 0.150843 255 255 255
-0.0109416 0.00725943 0.180985 255 255 255
-0.0405666 0.0334204 0.139544 255 255 255
-0.0423103 0.0389626 0.128239 255 255 255
-0.033816 0.0160919 0.199348 255 255 255
-0.0433561 0.0477971 0.119976 255 255 255
-0.0430636 0.0472998 0.127579 255 255 255
-0.0430636 0.0472998 0.127579 255 255 255
-0.0414656 0.0438715 0.136475 255 255 255
-0.0399642 0.0436249 0.149633 255 255 255
-0.0307194 0.0243206 0.224679 255 255 255
-0.0276682 0.0154462 0.247162 255 255 255
-0.0433159 0.053719 0.124 255 255 255
0.0488513 0.0397397 0.172441 255 255 255
-0.0423963 0.0551887 0.130468 255 255 255
-0.0414117 0.0526444 0.138901 255 255 255
-0.0414117 0.0526444 0.138901 255 255 255
-0.0400341 0.0522326 0.14466 255 255 255
-0.0397764 0.0503682 0.152316 255 255 255
-0.0398562 0.0502861 0.152648 255 255 255
-0.0406993 0.0542727 0.14259 255 255 255
-0.0400452 0.0536201 0.149267 255 255 255
-0.039584 0.0534279 0.151073 255 255 255
0.0381524 -0.0267566 0.145372 255 255 255
-0.0442134 -0.00120317 0.120357 255 255 255
-0.0434929 -0.00151657 0.123624 255 255 255
-0.0180442 -0.014257 0.147343 255 255 255
-0.0438077 0.00857874 0.120202 255 255 255
-0.0457578 0.0267352 0.109279 255 255 255
0.04739 0.00486011 0.149949 255 255 255
-0.00700222 0.00626119 0.165174 255 255 255
0.00416123 0.00630133 0.160146 255 255 255
-0.042526 0.0263737 0.128556 255 255 255
-0.0197236 -0.030359 0.309758 255 255 255
-0.0150921 -0.0373548 0.337816 255 255 255
-0.0179137 -0.0254357 0.327151 255 255 255
0.0251043 -0.0015677 0.154841 255 255 255
-0.0428802 0.0311957 0.123817 255 255 255
-0.0338021 0.0138355 0.199504 255 255 255
-0.0319692 0.00780766 0.214914 255 255 255
-0.0393083 0.0332323 0.151337 255 255 255
-0.0392904 0.0427111 0.151816 255 255 255
0.0415652 0.0354049 0.172058 255 255 255
-0.0406055 0.0478664 0.145457 255 255 255
-0.0406055 0.0478664 0.145457 255 255 255
-0.0373897 0.0476224 0.166024 255 255 255
-0.0369672 -0.0137496 0.145868 255 255 255
-0.045103 0.019641 0.113918 255 255 255
0.00849692 -0.00274392 0.161453 255 255 255
0.0137936 0.000138379 0.162715 255 255 255
-0.0432713 0.038834 0.124287 255 255 255
-0.0432713 0.038834 0.124287 255 255 255
-0.0112257 -0.0501775 0.378193 255 255 255
0.0330483 0.00190171 0.154869 255 255 255
0.0330534 0.00190552 0.154874 255 255 255
-0.0331506 0.00919686 0.166033 255 255 255
-0.040927 0.0499846 0.140008 255 255 255
-0.0390018 -0.0220975 0.138266 255 255 255
0.0530015 -0.0195496 0.142289 255 255 255
-0.0180889 -0.0124116 0.149652 255 255 255
-0.0158677 -0.0089204 0.156024 255 255 255
-0.0423369 -0.0227497 0.134952 255 255 255
-0.0426313 -0.010855 0.131893 255 255 255
-0.020767 -0.0191146 0.142331 255 255 255
-0.0164816 -0.0195135 0.144284 255 255 255
-0.0433101 0.00194089 0.125021 255 255 255
-0.0381041 -0.0141901 0.145579 255 255 255
-0.016991 -0.017629 0.147825 255 255 255
0.041507 -0.0205079 0.146098 255 255 255
0.0504359 -0.0171568 0.144631 255 255 255
0.0539953 -0.0188115 0.147116 255 255 255
0.049039 -0.0165551 0.147366 255 255 255
-0.0436138 0.0157543 0.120509 255 255 255
-0.0320889 -0.00434004 0.15367 255 255 255
0.0351628 -0.00484682 0.14935 255 255 255
0.0157216 -0.00278635 0.157487 255 255 255
0.0190889 -0.00238692 0.155046 255 255 255
0.0222338 -0.00289414 0.153597 255 255 255
0.0178076 -0.00163976 0.159986 255 255 255
0.0199733 -0.000934012 0.159174 255 255 255
0.0239206 -0.000791579 0.156859 255 255 255
0.0295792 0.000453115 0.15483 255 255 255
0.0441202 0.00189526 0.149092 255 255 255
0.0441036 0.00191866 0.149052 255 255 255
-0.0375971 0.00307745 0.158604 255 255 255
-0.0170124 0.000607332 0.162115 255 255 255
-0.0170124 0.000607332 0.162115 255 255 255
0.0193714 -0.00100909 0.160415 255 255 255
0.0434526 0.00449499 0.151419 255 255 255
-0.0189374 0.00244605 0.162289 255 255 255
0.0126118 0.00136097 0.164745 255 255 255
0.0314551 0.00380555 0.156145 255 255 255
0.0403305 0.00580797 0.154294 255 255 255
-0.0336309 0.00572605 0.162912 255 255 255
0.0439711 -0.12713 0.400866 255 255 255
-0.0130034 0.00661043 0.167319 255 255 255
-0.00282467 0.0070587 0.163065 255 255 255
0.0436935 0.0103332 0.155286 255 255 255
-0.0181099 0.00782488 0.167979 255 255 255
-0.00801339 0.00799371 0.170564 255 255 255
-0.00589535 0.00776145 0.168203 255 255 255
-0.0017685 0.00884685 0.167868 255 255 255
0.0271398 0.00845776 0.161691 255 255 255
0.0356724 0.00950411 0.157976 255 255 255
-0.043865 0.0361879 0.119879 255 255 255
-0.0111386 0.00761437 0.17673 255 255 255
0.0475343 0.0131605 0.155395 255 255 255
0.0475343 0.0131605 0.155395 255 255 255
-0.0294009 0.0135569 0.169412 255 255 255
0.0463183 0.0148881 0.158022 255 255 255
-0.0408465 0.0304817 0.143326 255 255 255
-0.0165663 -0.0594689 0.331677 255 255 255
-0.0151363 -0.0620656 0.337072 255 255 255
0.0485972 0.0173617 0.158177 255 255 255
-0.0408215 0.0331844 0.141637 255 255 255
-0.0244194 -0.0298294 0.272094 255 255 255
-0.0226037 -0.0343762 0.288433 255 255 255
-0.00462996 -0.095073 0.411117 255 255 255
0.0460931 0.0182752 0.160214 255 255 255
-0.0419798 0.0384634 0.131351 255 255 255
-0.023067 -0.0296619 0.281674 255 255 255
-0.0155058 -0.0536542 0.335346 255 255 255
-0.00898066 -0.0753802 0.384934 255 255 255
-0.0422433 0.0416536 0.13128 255 255 255
-0.0336663 0.0117507 0.199735 255 255 255
-0.0254731 -0.0151205 0.262683 255 255 255
-0.0186479 -0.0383582 0.318588 255 255 255
-0.0254808 -0.0112011 0.262426 255 255 255
-0.0180098 -0.0371376 0.320649 255 255 255
-0.0377101 0.030689 0.166202 255 255 255
-0.0312188 0.010107 0.220818 255 255 255
-0.0202464 -0.0250879 0.305687 255 255 255
0.0459728 0.0272767 0.165736 255 255 255
-0.0280004 0.00287038 0.243129 255 255 255
-0.0365075 0.0333987 0.173544 255 255 255
-0.03204 0.019343 0.209754 255 255 255
-0.0323417 0.0201258 0.211779 255 255 255
-0.0260266 0.00190235 0.260515 255 255 255
-0.0191577 -0.0195828 0.312998 255 255 255
0.0466372 0.0301944 0.167259 255 255 255
-0.0316157 0.0207799 0.215788 255 255 255
-0.0352862 0.0326339 0.185199 255 255 255
-0.027925 0.0141934 0.246446 255 255 255
-0.0250207 0.00480198 0.270367 255 255 255
0.0455488 0.0332639 0.169535 255 255 255
-0.0409662 0.0503594 0.139941 255 255 255
-0.0319757 0.0284954 0.212552 255 255 255
-0.0427597 0.0566966 0.129273 255 255 255
0.0500207 0.0378454 0.17039 255 255 255
0.0505105 0.0384725 0.170452 255 255 255
0.0519609 0.0390801 0.17021 255 255 255
-0.0398812 0.0520553 0.149403 255 255 255
-0.0381537 0.0487624 0.158969 255 255 255
-0.0377911 0.0463324 0.164572 255 255 255
-0.0346815 0.0391609 0.189918 255 255 255
-0.0325667 0.0333525 0.206656 255 255 255
0.0523616 0.0398141 0.170451 255 255 255
-0.0368336 0.0474059 0.17132 255 255 255
-0.0440637 -0.00596455 0.121058 255 255 255
-0.0276572 -0.0203093 0.138858 255 255 255
-0.0431392 -0.00629864 0.128689 255 255 255
-0.0423998 -0.0133447 0.135476 255 255 255
-0.0447225 0.00881658 0.112989 255 255 255
0.045704 -0.0204493 0.141369 255 255 255
-0.0468703 0.0206497 0.104122 255 255 255
-0.0419126 -0.00504667 0.138011 255 255 255
-0.031356 -0.0129581 0.145848 255 255 255
-0.0207722 -0.01377 0.147392 255 255 255
-0.00317868 -0.0143568 0.150606 255 255 255
-0.00317868 -0.0143568 0.150606 255 255 255
-0.0455473 0.0202174 0.111364 255 255 255
-0.0423162 0.0057503 0.133242 255 255 255
-0.0302116 -0.00790109 0.150169 255 255 255
0.0224479 -0.00495219 0.152083 255 255 255
-0.0434108 0.0299477 0.119835 255 255 255
-0.0386461 0.00910488 0.156722 255 255 255
-0.0367742 0.00525895 0.162134 255 255 255
-0.033096 0.00582889 0.162901 255 255 255
-0.0404873 0.0200767 0.145105 255 255 255
-0.0354437 0.00755674 0.164651 255 255 255
0.0291445 0.00976637 0.160829 255 255 255
-0.0402015 0.0231435 0.146749 255 255 255
-0.0130621 0.00722314 0.174706 255 255 255
-0.0407648 0.027845 0.143847 255 255 255
-0.0397392 0.023189 0.150135 255 255 255
-0.0433809 0.0384515 0.123077 255 255 255
-0.0417875 0.0350753 0.132478 255 255 255
-0.0162927 -0.0608786 0.330524 255 255 255
-0.0406836 0.0338186 0.139014 255 255 255
-0.0402295 0.0300055 0.146971 255 255 255
-0.0328617 0.0165127 0.172537 255 255 255
-0.0160622 -0.0558298 0.333178 255 255 255
-0.0155769 -0.0538019 0.333073 255 255 255
-0.0107964 -0.0722714 0.368599 255 255 255
-0.0243116 -0.0235692 0.275719 255 255 255
-0.0189739 -0.0430272 0.31516 255 255 255
-0.0145965 -0.0522892 0.338294 255 255 255
-0.022405 -0.0232483 0.288691 255 255 255
-0.0180927 -0.0296423 0.322811 255 255 255
-0.0149065 -0.0391309 0.340319 255 255 255
-0.0341335 0.0203559 0.196691 255 255 255
-0.0316665 0.0139904 0.215107 255 255 255
-0.0145312 -0.0381002 0.347813 255 255 255
-0.0416485 0.0461737 0.135384 255 255 255
-0.0315873 0.0204589 0.214789 255 255 255
-0.0409237 0.0516246 0.1397 255 255 255
-0.0391313 0.0469484 0.154351 255 255 255
-0.0389196 0.0466114 0.15519 255 255 255
-0.0389196 0.0466114 0.15519 255 255 255
-0.0319497 0.0273185 0.212541 255 255 255
-0.0411508 0.0547729 0.139223 255 255 255
-0.0325008 0.0344317 0.209277 255 255 255
-0.0403088 0.0557668 0.14496 255 255 255
-0.0403088 0.0557668 0.14496 255 255 255
-0.0397996 0.0529066 0.149926 255 255 255
-0.0407611 0.0571637 0.14313 255 255 255
-0.0393334 0.053973 0.15305 255 255 255
-0.0439932 -0.0042122 0.120574 255 255 255
-0.0442886 0.00064281 0.119037 255 255 255
0.0396944 -0.0244011 0.144496 255 255 255
-0.0424244 -0.00461551 0.132653 255 255 255
-0.0422113 -0.00130304 0.134105 255 255 255
-0.00460055 -0.0147372 0.149425 255 255 255
0.0499551 -0.0167278 0.147894 255 255 255
0.0278241 -0.00931484 0.148599 255 255 255
-0.0172769 -0.00564656 0.155522 255 255 255
0.0306215 -0.00460282 0.150977 255 255 255
-0.0426023 0.0138738 0.130267 255 255 255
-0.0164364 -0.00446542 0.157336 255 255 255
0.0262205 -0.00259022 0.154276 255 255 255
0.030108 -0.00199843 0.153026 255 255 255
0.030108 -0.00199843 0.153026 255 255 255
0.0419578 0.000206053 0.14929 255 255 255
-0.0452134 0.0300774 0.11173 255 255 255
-0.0340529 0.00170121 0.159254 255 255 255
0.0443926 0.00217275 0.14955 255 255 255
-0.0445651 0.0297532 0.116003 255 255 255
0.016462 -0.000301253 0.163034 255 255 255
-0.0415532 0.0193348 0.135698 255 255 255
-0.0432223 0.0310388 0.122001 255 255 255
-0.0280169 0.0063233 0.162671 255 255 255
-0.0410156 0.0228316 0.139374 255 255 255
-0.0182788 0.00567936 0.166457 255 255 255
0.0427916 -0.122311 0.400991 255 255 255
-0.042974 0.0335333 0.123648 255 255 255
-0.0411239 0.0253134 0.137114 255 255 255
-0.036872 0.0103354 0.166782 255 255 255
-0.0365425 0.0122573 0.168705 255 255 255
-0.0265705 0.0147188 0.170245 255 255 255
-0.015285 -0.0630155 0.336193 255 255 255
-0.006085 -0.0923443 0.403247 255 255 255
-0.0262283 0.0166757 0.171769 255 255 255
-0.0216001 -0.038564 0.296792 255 255 255
-0.0184641 -0.049975 0.322254 255 255 255
-0.0405755 0.0329089 0.144621 255 255 255
-0.0406174 0.0360862 0.142176 255 255 255
-0.031057 0.00278083 0.219343 255 255 255
-0.0401951 0.037452 0.145317 255 255 255
-0.0342462 0.0174332 0.196176 255 255 255
-0.0285937 0.00896872 0.240732 255 255 255
-0.0375237 0.0380583 0.168082 255 255 255
-0.0343913 0.0287133 0.192723 255 255 255
-0.0337771 0.0283562 0.197366 255 255 255
0.0505065 0.0361625 0.169215 255 255 255
0.0505022 0.0361536 0.169217 255 255 255
-0.0323349 0.0323668 0.208944 255 255 255
0.047901 0.0382181 0.171217 255 255 255
-0.0412969 0.0555182 0.137888 255 255 255
-0.0419175 0.0586827 0.13227 255 255 255
-0.0401459 0.0551921 0.146004 255 255 255
-0.0423157 0.0597052 0.132354 255 255 255
-0.0370845 0.0510002 0.167362 255 255 255
-0.0394559 0.0558924 0.152226 255 255 255
-0.043125 -0.0113817 0.128878 255 255 255
0.0511971 -0.0178384 0.144543 255 255 255
0.0537858 -0.0186318 0.145522 255 255 255
0.0163837 -0.0111055 0.149088 255 255 255
0.0367103 -0.010458 0.144148 255 255 255
-0.0312352 -0.00689962 0.151265 255 255 255
-0.0195295 -0.00970893 0.151674 255 255 255
-0.0443492 0.0193464 0.117014 255 255 255
-0.0453349 0.0256739 0.109181 255 255 255
-0.0417536 0.0103049 0.136832 255 255 255
0.0287731 -0.00467474 0.151717 255 255 255
-0.0415675 0.017057 0.136074 255 255 255
0.0480137 0.00725706 0.150898 255 255 255
-0.010929 0.00760974 0.17453 255 255 255
-0.0352262 0.0164116 0.172639 255 255 255
-0.0415913 0.0350732 0.133848 255 255 255
-0.0084873 -0.0810069 0.385777 255 255 255
-0.0121405 -0.0641802 0.362217 255 255 255
-0.040478 0.0400711 0.143327 255 255 255
-0.0237592 -0.0145571 0.277942 255 255 255
-0.0376965 0.0411281 0.16407 255 255 255
-0.0335325 0.0316717 0.194821 255 255 255
-0.0409727 0.0528804 0.139527 255 255 255
-0.0407081 0.0575581 0.1438 255 255 255
-0.0386142 0.0531561 0.158103 255 255 255
-0.0372892 0.0501698 0.166587 255 255 255
-0.0439986 0.00627643 0.11903 255 255 255
-0.00654812 -0.0165775 0.147001 255 255 255
-7.32769e-05 -0.0165459 0.147252 255 255 255
-0.0457398 0.0177397 0.110107 255 255 255
0.0118457 -0.00870304 0.152426 255 255 255
0.0118619 -0.00874289 0.152462 255 255 255
-0.0444158 0.0208466 0.116713 255 255 255
0.0189476 -0.00110976 0.159635 255 255 255
-0.0410557 0.021916 0.137571 255 255 255
-0.0405447 0.0290559 0.143298 255 255 255
-0.0405154 0.0291352 0.143187 255 255 255
-0.0429221 0.0404681 0.124083 255 255 255
-0.0170211 -0.0512389 0.325707 255 255 255
-0.0424497 0.0405638 0.13002 255 255 255
-0.0424497 0.0405638 0.13002 255 255 255
-0.0219645 -0.0310105 0.294788 255 255 255
-0.0262917 -0.00560265 0.257055 255 255 255
-0.035646 0.0270651 0.179967 255 255 255
-0.0341747 0.0261875 0.194743 255 255 255
-0.0421086 0.0564901 0.131457 255 255 255
-0.0385701 0.050091 0.154047 255 255 255
-0.0375601 0.0492581 0.166076 255 255 255
-0.0444146 -0.00179193 0.120952 255 255 255
-0.0283308 -0.00887864 0.148946 255 255 255
-0.043091 0.0187141 0.123481 255 255 255
-0.0437655 0.0246281 0.119 255 255 255
-0.0404706 0.0160836 0.145707 255 255 255
-0.0357934 0.0131671 0.169724 255 255 255
-0.0334449 0.00995147 0.205035 255 255 255
-0.0286125 0.0001611 0.23191 255 255 255
-0.038439 0.0371822 0.160577 255 255 255
-0.0402107 0.048698 0.146644 255 255 255
-0.0409495 0.0563637 0.140811 255 255 255
0.0449758 -0.0209603 0.142624 255 255 255
-0.0306131 -0.0128272 0.145824 255 255 255
-0.0248569 -0.00658085 0.1506 255 255 255
-0.0183336 -0.00409746 0.157541 255 255 255
0.0208123 -0.00259114 0.154445 255 255 255
-0.0335382 0.00718398 0.164132 255 255 255
-0.034608 0.0097239 0.166588 255 255 255
-0.00284501 0.00859012 0.168309 255 255 255
-0.0144628 -0.0573435 0.339896 255 255 255
-0.0257549 -0.0105563 0.258438 255 255 255
-0.0420023 0.057888 0.13111 255 255 255
-0.0293575 -0.0156286 0.142949 255 255 255
0.0120751 -0.00608741 0.156944 255 255 255
-0.0413239 0.0586777 0.136317 255 255 255
0.0295402 -0.0107502 0.147135 255 255 255
-0.0405499 0.0543224 0.143696 255 255 255
-0.0382441 0.00327784 0.151654 255 255 255
0.0435509 -0.0254668 0.142285 255 255 255
-0.00591599 -0.0172806 0.146404 255 255 255
-0.040762 -0.0133891 0.143786 255 255 255
0.0312092 -0.0120952 0.145602 255 255 255
0.0337685 -0.00876377 0.147149 255 255 255
-0.0327022 0.00786055 0.164853 255 255 255
0.049365 0.0112155 0.153897 255 255 255
-0.0389053 0.0327759 0.154833 255 255 255
-0.0111572 -0.00676633 0.176285 255 255 255
0.0449384 -0.0238124 0.141726 255 255 255
0.0078007 -0.000637437 0.162554 255 255 255
0.0078007 -0.000637437 0.162554 255 255 255
-0.0427992 -0.033104 0.131242 255 255 255
0.0411398 0.0335415 0.171875 255 255 255
0.0373872 -0.0114403 0.142959 255 255 255
0.0442238 -0.0196007 0.14457 255 255 255
-0.00453089 -0.0169883 0.146659 255 255 255
-0.00453089 -0.0169883 0.146659 255 255 255
-0.000705413 -0.00785264 0.172997 255 255 255
-0.0431244 -0.00866355 0.128721 255 255 255
0.0430708 0.000928699 0.149354 255 255 255
0.0477974 0.002865 0.148541 255 255 255
-0.0250373 0.0162821 0.171406 255 255 255
-0.0325228 0.0357833 0.210987 255 255 255
-0.0394957 0.0360246 0.151964 255 255 255
-0.0100143 -0.0263465 0.156065 255 255 255
0.0395755 -0.0245346 0.144527 255 255 255
0.0350383 -0.015522 0.143658 255 255 255
-0.0432293 -0.0143351 0.129079 255 255 255
0.0406427 0.000325262 0.150431 255 255 255
0.0304632 0.0164033 0.165133 255 255 255
0.0398818 0.0275791 0.168314 255 255 255
-0.0404155 0.0235621 0.145434 255 255 255
0.0278143 -0.00927032 0.148556 255 255 255
-0.0235364 -0.00588426 0.150802 255 255 255
-0.0327947 -0.00926521 0.149184 255 255 255
0.0273911 0.00303976 0.157286 255 255 255
-0.0269857 0.0712286 0.265516 255 255 255
0.0451806 0.0220813 0.162717 255 255 255
0.0252095 -0.0125592 0.146747 255 255 255
0.075174 0.035291 0.2204 255 255 255
0.0391372 -0.0271345 0.145188 255 255 255
0.0294153 -0.0223511 0.148447 255 255 255
0.0304945 0.0157455 0.164903 255 255 255
-0.0234269 -0.0181324 0.139605 255 255 255
-0.0353494 -0.0147036 0.14475 255 255 255
-0.0317255 -0.0117448 0.146886 255 255 255
-0.00727066 -0.0161904 0.147333 255 255 255
0.040077 -0.0106394 0.141735 255 255 255
-0.0391175 -0.00679404 0.150754 255 255 255
0.0224609 -0.00947168 0.149035 255 255 255
-0.0452673 0.0269329 0.113088 255 255 255
-0.0450433 0.0272147 0.113443 255 255 255
0.00810758 -0.00904515 0.153434 255 255 255
-0.0334677 -0.00111419 0.156712 255 255 255
0.0230685 -0.00326494 0.153348 255 255 255
0.0422375 9.26778e-05 0.148798 255 255 255
0.0422375 9.26778e-05 0.148798 255 255 255
-0.0327549 0.00251204 0.159876 255 255 255
-0.0260226 0.00125375 0.157966 255 255 255
0.0266021 -0.00111026 0.155065 255 255 255
0.0293248 -0.000332719 0.154065 255 255 255
0.0322818 -0.000678026 0.153372 255 255 255
0.0120621 -0.00143359 0.16095 255 255 255
0.0130751 -0.000765212 0.161517 255 255 255
-0.0429923 0.0299248 0.125009 255 255 255
-0.021378 0.00625703 0.16145 255 255 255
-0.0427819 0.033161 0.125579 255 255 255
-0.00530144 0.00605104 0.163127 255 255 255
0.0329856 0.0055633 0.156073 255 255 255
0.0448634 0.00694548 0.152862 255 255 255
0.0451445 0.0072174 0.152333 255 255 255
0.049393 0.007888 0.152369 255 255 255
-0.0189515 0.00822672 0.163002 255 255 255
-0.0155553 0.00697856 0.168171 255 255 255
-0.00845399 0.00644813 0.16679 255 255 255
0.0279397 0.00833279 0.160446 255 255 255
0.0414139 0.0097065 0.156054 255 255 255
-0.0250257 0.0108327 0.166574 255 255 255
-0.0250257 0.0108327 0.166574 255 255 255
-0.00558056 0.00769477 0.167461 255 255 255
-0.00611165 0.00783434 0.168781 255 255 255
-0.00114345 0.00855421 0.165933 255 255 255
0.0302157 0.00951483 0.160312 255 255 255
0.0366051 0.010039 0.158343 255 255 255
-0.0101512 0.00801364 0.175669 255 255 255
0.00437691 0.00873146 0.167989 255 255 255
0.0376544 -0.124075 0.399696 255 255 255
0.0477543 0.0132162 0.154938 255 255 255
-0.040912 0.0336471 0.137779 255 255 255
-0.00762014 0.00845323 0.175872 255 255 255
0.0296878 0.0133069 0.163484 255 255 255
0.0481862 0.0162017 0.157539 255 255 255
-0.0315465 0.0163341 0.172273 255 255 255
-0.0146617 -0.0774254 0.34165 255 255 255
-0.0401004 0.0336317 0.146625 255 255 255
-0.0357074 0.0175023 0.173389 255 255 255
-0.0238109 -0.0366408 0.280383 255 255 255
-0.0406385 0.0362427 0.142993 255 255 255
-0.0369989 0.0239873 0.168833 255 255 255
-0.0336722 0.00726533 0.199765 255 255 255
-0.0307452 -0.0050685 0.222281 255 255 255
