ply
format ascii 1.0
element vertex 1191
property float x
property float y
property float z
property uchar red
property uchar green
property uchar blue
end_header
0.112467 0.144312 0.502171 255 255 255
-0.0449363 0.121297 0.440291 255 255 255
-0.00360599 0.144108 0.452227 255 255 255
0.0543981 0.154537 0.474755 255 255 255
-0.0302011 0.141528 0.442973 255 255 255
-0.0205893 0.152357 0.4429 255 255 255
-0.0205103 0.152358 0.442861 255 255 255
0.0397056 0.16126 0.465032 255 255 255
0.0391736 0.16847 0.461985 255 255 255
-0.00505227 0.170881 0.441488 255 255 255
-0.0605228 -0.153675 0.549757 255 255 255
0.123079 -0.004785 0.566119 255 255 255
0.11429 0.0227683 0.551106 255 255 255
0.125057 0.0223223 0.555051 255 255 255
-0.0390184 -0.0337917 0.512804 255 255 255
-0.00430121 0.0402823 0.495235 255 255 255
-0.0593959 0.033893 0.474968 255 255 255
0.0801444 0.130709 0.494362 255 255 255
0.0894955 0.132417 0.497382 255 255 255
0.0894955 0.132417 0.497382 255 255 255
0.0922246 0.132275 0.498517 255 255 255
0.0919407 0.132246 0.498791 255 255 255
0.0955058 0.133292 0.499415 255 255 255
0.101795 0.133407 0.502087 255 255 255
-0.0477202 0.107129 0.444198 255 255 255
-0.00690213 0.116325 0.46055 255 255 255
0.0927595 0.138102 0.496355 255 255 255
0.0776875 0.137584 0.490522 255 255 255
0.108021 0.143946 0.500413 255 255 255
0.112627 0.147065 0.501331 255 255 255
-0.0460779 0.124454 0.435887 255 255 255
0.0165654 0.143344 0.453654 255 255 255
0.123728 -0.0153939 0.570287 255 255 255
0.124108 -0.0151383 0.569814 255 255 255
0.129108 0.000259055 0.566472 255 255 255
0.124216 0.00348142 0.563108 255 255 255
-0.00692205 0.0434405 0.49133 255 255 255
0.0346125 0.0994641 0.487866 255 255 255
0.0986261 0.132526 0.501144 255 255 255
0.110994 0.133776 0.50553 255 255 255
-0.0346266 0.120931 0.44923 255 255 255
0.09011 0.141967 0.493751 255 255 255
-0.000279028 0.169476 0.443794 255 255 255
-0.0680108 -0.0625974 0.509616 255 255 255
0.000423943 -0.113738 0.555515 255 255 255
0.00915117 -0.127921 0.597438 255 255 255
0.00264853 -0.131497 0.620972 255 255 255
-0.0106468 -0.147495 0.674087 255 255 255
0.0173078 -0.103074 0.576363 255 255 255
0.019282 -0.0962335 0.567964 255 255 255
0.0167425 -0.0968046 0.575988 255 255 255
0.0129465 -0.099421 0.586746 255 255 255
0.0182376 -0.0893669 0.568997 255 255 255
0.0155339 -0.0924741 0.577586 255 255 255
0.155197 -0.00940691 0.577818 255 255 255
0.0206949 -0.0698203 0.555848 255 255 255
0.142166 -0.00585171 0.572822 255 255 255
0.0224026 -0.0621627 0.547865 255 255 255
0.135048 -0.0040023 0.569272 255 255 255
0.124456 -0.00201566 0.56533 255 255 255
0.136004 0.00387112 0.567035 255 255 255
0.137318 0.00843807 0.565276 255 255 255
0.142877 0.0157987 0.562471 255 255 255
0.0232307 -0.0406813 0.540941 255 255 255
0.0227405 -0.0414407 0.542887 255 255 255
0.0684603 -0.0134019 0.548186 255 255 255
0.142594 0.0223887 0.561217 255 255 255
0.0242456 -0.0332701 0.53494 255 255 255
0.140877 0.0232232 0.560479 255 255 255
0.0358368 0.00521237 0.524582 255 255 255
-0.0344961 -0.00361279 0.497018 255 255 255
0.0322337 0.0266025 0.516642 255 255 255
0.117703 0.0602293 0.538558 255 255 255
0.141253 0.0653143 0.544748 255 255 255
0.0994513 0.0571543 0.531266 255 255 255
-0.0391809 0.0175795 0.490028 255 255 255
0.102473 0.0681404 0.529165 255 255 255
0.113523 0.0694428 0.533673 255 255 255
0.0961543 0.0674802 0.52696 255 255 255
0.108417 0.0820438 0.527564 255 255 255
0.139052 0.088772 0.53479 255 255 255
-0.0578105 0.0327172 0.475353 255 255 255
-0.0129429 0.0459689 0.489386 255 255 255
-0.00346811 0.0464609 0.492737 255 255 255
0.0781749 0.078991 0.523225 255 255 255
0.102526 0.0820951 0.523732 255 255 255
0.101935 0.084877 0.522345 255 255 255
0.141775 0.0982494 0.532155 255 255 255
0.141775 0.0982494 0.532155 255 255 255
0.105638 0.0882327 0.522648 255 255 255
0.105522 0.0912579 0.521374 255 255 255
0.134744 0.0998129 0.529728 255 255 255
0.0454535 0.0775196 0.510524 255 255 255
-0.0550437 0.0525207 0.468856 255 255 255
0.0338171 0.080999 0.495459 255 255 255
0.0773151 0.09649 0.512828 255 255 255
0.109571 0.103213 0.521708 255 255 255
-0.0586767 0.06285 0.463186 255 255 255
-0.0460963 0.0647386 0.468671 255 255 255
0.0707796 0.098606 0.504247 255 255 255
0.0718187 0.0995369 0.50438 255 255 255
0.0742628 0.100212 0.505085 255 255 255
0.0203704 0.0929034 0.481343 255 255 255
0.0203704 0.0929034 0.481343 255 255 255
0.0767896 0.106656 0.506632 255 255 255
-0.0586654 0.0777661 0.45619 255 255 255
0.103303 0.119421 0.509305 255 255 255
0.0240538 0.104318 0.476574 255 255 255
0.128041 0.131361 0.512417 255 255 255
0.0141509 0.110005 0.470479 255 255 255
0.0229984 0.107697 0.474975 255 255 255
-0.0537561 0.101753 0.446968 255 255 255
0.124205 0.146086 0.506069 255 255 255
0.0251599 0.12827 0.465522 255 255 255
0.0257392 0.137044 0.459862 255 255 255
0.137675 0.160697 0.505198 255 255 255
0.0282228 0.153549 0.451434 255 255 255
0.0280858 0.155884 0.450532 255 255 255
0.0689639 0.174758 0.488578 255 255 255
0.0707624 0.175993 0.489201 255 255 255
0.0339145 0.171008 0.458192 255 255 255
0.0346441 0.170609 0.459066 255 255 255
0.0429059 0.173178 0.462487 255 255 255
0.154987 -0.0194938 0.582066 255 255 255
0.0219292 -0.0871829 0.557835 255 255 255
0.0214899 -0.0767654 0.556373 255 255 255
0.0189249 -0.0773874 0.56391 255 255 255
0.0880008 -0.0438314 0.567725 255 255 255
0.0198586 -0.0755528 0.559859 255 255 255
0.0193712 -0.0720372 0.559766 255 255 255
0.0187774 -0.0707484 0.562086 255 255 255
0.14093 0.000119808 0.570095 255 255 255
0.0219212 -0.0578878 0.5494 255 255 255
0.0134392 -0.0500947 0.537327 255 255 255
0.112699 -0.0036072 0.561642 255 255 255
0.149719 0.0174103 0.562392 255 255 255
0.0459255 -0.0229941 0.541077 255 255 255
0.141377 0.0184602 0.562441 255 255 255
0.134641 0.0270345 0.557219 255 255 255
0.14314 0.0389648 0.555891 255 255 255
0.143468 0.0402922 0.555922 255 255 255
-0.0416458 -0.0373418 0.512422 255 255 255
0.153753 0.0482288 0.554118 255 255 255
0.0214008 0.00140427 0.516418 255 255 255
0.0330117 0.00482804 0.523345 255 255 255
-0.0568117 -0.0278141 0.500921 255 255 255
0.0601473 0.0266448 0.528529 255 255 255
0.0379318 0.0240445 0.520123 255 255 255
0.152452 0.0677017 0.546047 255 255 255
0.0372072 0.0311856 0.519314 255 255 255
0.116087 0.0580176 0.537512 255 255 255
0.119028 0.0592698 0.538827 255 255 255
0.121333 0.0598572 0.539736 255 255 255
0.11672 0.0592214 0.537813 255 255 255
0.103965 0.0600559 0.533259 255 255 255
0.101016 0.0652258 0.529127 255 255 255
-0.0271359 0.024146 0.492076 255 255 255
0.0440579 0.050322 0.511701 255 255 255
0.108288 0.0810401 0.52666 255 255 255
-0.0387647 0.037455 0.482369 255 255 255
0.0771643 0.0772334 0.518984 255 255 255
0.0297326 0.0639057 0.50077 255 255 255
0.0452762 0.0741405 0.511913 255 255 255
0.0756482 0.0792657 0.514739 255 255 255
0.150453 0.104766 0.529939 255 255 255
0.0719178 0.0890927 0.508649 255 255 255
0.073855 0.0897245 0.509176 255 255 255
0.0740551 0.0937774 0.507612 255 255 255
0.109833 0.104621 0.522017 255 255 255
0.110698 0.104204 0.523909 255 255 255
0.0730115 0.0989005 0.505044 255 255 255
0.0774628 0.101409 0.509865 255 255 255
0.018299 0.0926604 0.480586 255 255 255
0.0743136 0.107437 0.502311 255 255 255
0.0122984 0.0933225 0.478089 255 255 255
-0.0471923 0.0923446 0.452828 255 255 255
-0.0467073 0.0976107 0.454194 255 255 255
0.015868 0.109597 0.471277 255 255 255
0.0212182 0.107358 0.474239 255 255 255
0.0640192 0.121686 0.489785 255 255 255
0.0968429 0.124914 0.501752 255 255 255
0.134543 0.136935 0.513871 255 255 255
0.0553175 0.124737 0.485891 255 255 255
-0.0287246 0.115372 0.452293 255 255 255
-0.0165254 0.11652 0.456774 255 255 255
-0.00380774 0.11781 0.461454 255 255 255
0.0215732 0.119683 0.467527 255 255 255
0.127044 0.147059 0.506771 255 255 255
0.0523671 0.135968 0.481087 255 255 255
0.120717 0.149122 0.503708 255 255 255
0.12735 0.151537 0.50556 255 255 255
0.127498 0.151372 0.505344 255 255 255
0.128404 0.152444 0.505891 255 255 255
0.0349716 0.136489 0.472674 255 255 255
0.124534 0.160961 0.500848 255 255 255
0.0732836 0.158204 0.487253 255 255 255
0.123446 0.170203 0.496546 255 255 255
0.123446 0.170203 0.496546 255 255 255
0.12904 0.168485 0.499261 255 255 255
0.0211606 0.155049 0.448163 255 255 255
0.0328108 0.16054 0.450602 255 255 255
0.0327457 0.160559 0.450615 255 255 255
0.122022 0.172292 0.494729 255 255 255
0.123919 0.181067 0.491834 255 255 255
0.0280954 0.16768 0.445958 255 255 255
0.0640179 0.179027 0.469789 255 255 255
0.0732796 0.180617 0.489542 255 255 255
0.12333 0.186023 0.489736 255 255 255
0.12333 0.186023 0.489736 255 255 255
0.063995 0.181287 0.468818 255 255 255
0.0538399 0.18547 0.462268 255 255 255
0.122354 0.19155 0.487264 255 255 255
0.124057 0.194894 0.48749 255 255 255
0.126919 0.197809 0.486558 255 255 255
0.127591 0.19956 0.486149 255 255 255
0.00513074 -0.138615 0.613435 255 255 255
-0.0456767 -0.169259 0.561076 255 255 255
-0.0193184 -0.149834 0.567157 255 255 255
0.0184343 -0.103811 0.573869 255 255 255
0.153106 -0.0270661 0.584834 255 255 255
0.156457 -0.0271537 0.586482 255 255 255
0.15184 -0.0132178 0.579331 255 255 255
-0.0348264 -0.109378 0.541108 255 255 255
0.0182202 -0.0808923 0.566812 255 255 255
0.0768294 -0.0521107 0.565721 255 255 255
0.152692 -0.00271166 0.575248 255 255 255
-0.0655891 -0.110605 0.529732 255 255 255
0.136568 0.00104493 0.569101 255 255 255
0.139407 0.00120447 0.569368 255 255 255
0.139407 0.00120447 0.569368 255 255 255
-0.0568827 -0.0990931 0.528426 255 255 255
0.144704 0.00788861 0.56888 255 255 255
0.0603582 -0.0244508 0.548995 255 255 255
0.137456 0.0139106 0.561373 255 255 255
0.155885 0.0183741 0.564997 255 255 255
0.1365 0.015401 0.56012 255 255 255
-0.023062 -0.0523845 0.523899 255 255 255
0.12577 0.0183688 0.556713 255 255 255
-0.0119898 -0.0369802 0.522727 255 255 255
0.0365383 -0.00472947 0.53027 255 255 255
0.0746171 0.0111114 0.538196 255 255 255
0.0781371 0.0129652 0.538543 255 255 255
-0.0465355 -0.0355384 0.509307 255 255 255
0.065174 0.0111718 0.534791 255 255 255
0.0514622 0.0156264 0.528452 255 255 255
0.138173 0.056094 0.547768 255 255 255
0.134383 0.0613544 0.544173 255 255 255
0.130314 0.0613468 0.542978 255 255 255
-0.0159488 0.0185004 0.499019 255 255 255
0.105313 0.058257 0.534179 255 255 255
0.11055 0.0615871 0.53519 255 255 255
0.0593238 0.0534142 0.517763 255 255 255
0.140261 0.0807364 0.538812 255 255 255
-0.0117357 0.0357403 0.493816 255 255 255
0.0726903 0.0615268 0.520144 255 255 255
0.104009 0.073499 0.527727 255 255 255
0.140926 0.085095 0.537429 255 255 255
0.0775189 0.079067 0.51986 255 255 255
0.137608 0.097752 0.531487 255 255 255
0.0453457 0.0756462 0.507995 255 255 255
0.0780035 0.0816377 0.521948 255 255 255
0.11083 0.0975815 0.528852 255 255 255
0.109309 0.10185 0.520642 255 255 255
0.0441338 0.0951103 0.496477 255 255 255
0.041533 0.104811 0.489978 255 255 255
0.138567 0.129181 0.517146 255 255 255
0.0735814 0.118854 0.497611 255 255 255
0.12206 0.127493 0.511612 255 255 255
0.110633 0.130436 0.506327 255 255 255
0.116302 0.13106 0.508619 255 255 255
0.150532 0.141154 0.512026 255 255 255
0.0141713 0.115927 0.466172 255 255 255
0.130935 0.140532 0.511067 255 255 255
0.133964 0.140806 0.512241 255 255 255
0.132498 0.141828 0.511253 255 255 255
-0.0230898 0.115954 0.45454 255 255 255
0.0800514 0.137276 0.491645 255 255 255
0.11576 0.142873 0.503942 255 255 255
0.135369 0.145365 0.51099 255 255 255
-0.0133585 0.119659 0.457707 255 255 255
0.0182381 0.12505 0.464167 255 255 255
0.0533306 0.1345 0.481983 255 255 255
-0.02934 0.125825 0.44945 255 255 255
0.116065 0.152948 0.50021 255 255 255
0.116543 0.155707 0.499501 255 255 255
0.134335 0.154671 0.506999 255 255 255
0.0929522 0.15327 0.495966 255 255 255
0.129757 0.160303 0.503083 255 255 255
0.136197 0.160041 0.505189 255 255 255
0.0545438 0.154552 0.474687 255 255 255
0.132722 0.166893 0.501069 255 255 255
0.132884 0.170038 0.499947 255 255 255
0.131758 0.171054 0.499199 255 255 255
0.132923 0.172352 0.498965 255 255 255
0.126282 0.175565 0.495811 255 255 255
0.126634 0.180763 0.494054 255 255 255
0.133223 0.183088 0.494749 255 255 255
0.0552258 0.178432 0.465452 255 255 255
0.125189 0.188031 0.489766 255 255 255
0.127009 0.19585 0.487371 255 255 255
0.131793 0.197203 0.488683 255 255 255
-0.000231707 -0.0974058 0.550955 255 255 255
0.0819814 -0.0494177 0.56706 255 255 255
0.138105 -0.0058055 0.570404 255 255 255
0.150368 0.0078772 0.569431 255 255 255
0.0232312 -0.0449246 0.544299 255 255 255
0.0229357 -0.0348608 0.538457 255 255 255
0.13382 0.0222995 0.559016 255 255 255
-0.0256679 -0.0427613 0.518505 255 255 255
0.132757 0.0279237 0.555815 255 255 255
0.135804 0.0295757 0.556572 255 255 255
0.0998853 0.0193869 0.546063 255 255 255
0.140256 0.0362641 0.55596 255 255 255
0.140839 0.0390821 0.555105 255 255 255
0.138285 0.0931874 0.53289 255 255 255
0.135203 0.0984092 0.53055 255 255 255
0.139223 0.123459 0.520881 255 255 255
-0.0486354 0.0762137 0.460699 255 255 255
0.140204 0.130729 0.517486 255 255 255
0.120613 0.131193 0.509626 255 255 255
0.132525 0.136247 0.513535 255 255 255
-0.0396619 0.106633 0.454492 255 255 255
0.0955044 0.133325 0.499408 255 255 255
0.0171959 0.117872 0.466784 255 255 255
0.11715 0.141104 0.505577 255 255 255
0.127818 0.144771 0.508482 255 255 255
0.0150131 0.128748 0.461821 255 255 255
0.121906 0.15252 0.503092 255 255 255
0.132921 0.157233 0.505231 255 255 255
0.131801 0.158724 0.504161 255 255 255
0.133741 0.160388 0.50407 255 255 255
0.0742534 0.163439 0.495439 255 255 255
-0.0441313 0.142438 0.433992 255 255 255
0.120645 0.167366 0.496749 255 255 255
0.124137 0.168709 0.497137 255 255 255
0.0432148 0.160939 0.467493 255 255 255
0.129612 0.174099 0.497115 255 255 255
0.12909 0.181114 0.494023 255 255 255
0.124186 0.191048 0.488395 255 255 255
0.127245 0.190856 0.489355 255 255 255
0.133138 0.188306 0.492692 255 255 255
0.133138 0.188306 0.492692 255 255 255
0.133526 0.195611 0.489993 255 255 255
0.0917247 -0.0488494 0.571203 255 255 255
0.111634 -0.0237706 0.569678 255 255 255
0.124287 -0.00749499 0.568622 255 255 255
0.139777 0.0180613 0.56106 255 255 255
0.0283487 -0.00185484 0.526512 255 255 255
0.0583356 0.0145133 0.531781 255 255 255
0.152292 0.0561243 0.550259 255 255 255
0.150494 0.0617552 0.548165 255 255 255
0.101932 0.0633494 0.530869 255 255 255
0.140129 0.0832193 0.537174 255 255 255
-0.0594739 0.0338821 0.475022 255 255 255
0.141096 0.0944591 0.533379 255 255 255
0.0187856 0.095962 0.477609 255 255 255
0.124334 0.129833 0.511463 255 255 255
0.138326 0.132827 0.516166 255 255 255
0.0200146 0.106931 0.473562 255 255 255
0.110752 0.133808 0.505759 255 255 255
0.117086 0.134392 0.508064 255 255 255
0.117086 0.134392 0.508064 255 255 255
0.129344 0.13265 0.513002 255 255 255
-0.012695 0.109063 0.464092 255 255 255
-0.00555371 0.113087 0.462202 255 255 255
-0.00555371 0.113087 0.462202 255 255 255
0.114374 0.139446 0.505101 255 255 255
0.11269 0.147066 0.501297 255 255 255
0.118504 0.149081 0.502298 255 255 255
-0.0445084 0.123622 0.442551 255 255 255
0.0904548 0.150313 0.494925 255 255 255
0.136657 0.157826 0.506166 255 255 255
0.129236 0.162704 0.501702 255 255 255
0.0730348 0.157055 0.486544 255 255 255
0.123667 0.176642 0.493632 255 255 255
0.124576 0.17889 0.49323 255 255 255
-0.0436611 0.162925 0.426804 255 255 255
0.126482 0.182491 0.49255 255 255 255
0.124203 0.184291 0.490837 255 255 255
0.130623 0.189127 0.491406 255 255 255
0.0289485 0.178053 0.439142 255 255 255
0.125427 -0.0117539 0.569678 255 255 255
0.0222481 -0.0211051 0.528292 255 255 255
0.133727 0.0746939 0.539196 255 255 255
-0.0512819 0.0203473 0.483749 255 255 255
-0.00918161 0.0469732 0.489942 255 255 255
0.132037 0.14554 0.509987 255 255 255
0.119021 0.160424 0.49873 255 255 255
0.127647 0.169344 0.498184 255 255 255
-0.0466755 -0.153809 0.557417 255 255 255
0.0207061 -0.103024 0.568267 255 255 255
0.137645 0.0244785 0.560157 255 255 255
0.151027 0.0295857 0.561353 255 255 255
-0.0598734 0.040076 0.471505 255 255 255
0.138813 0.113463 0.525848 255 255 255
0.124086 0.149151 0.504999 255 255 255
0.126015 0.164554 0.499404 255 255 255
0.052076 0.161114 0.471006 255 255 255
0.0884563 0.0607135 0.52637 255 255 255
0.0761777 0.116385 0.501525 255 255 255
-0.0139697 0.126672 0.454353 255 255 255
0.0551951 0.173814 0.466406 255 255 255
0.106005 0.142767 0.50051 255 255 255
0.167405 -0.0193757 0.590088 255 255 255
-0.00585203 -0.115051 0.554381 255 255 255
0.0213049 -0.101161 0.563234 255 255 255
0.0224725 -0.077795 0.553964 255 255 255
-0.00672008 -0.0925859 0.549333 255 255 255
0.0211791 -0.0736192 0.555468 255 255 255
0.0226282 -0.0620286 0.547787 255 255 255
0.0232206 -0.0580201 0.545213 255 255 255
0.0586904 -0.032788 0.551626 255 255 255
0.00906304 -0.04528 0.533372 255 255 255
0.164993 0.0458567 0.561165 255 255 255
0.155668 0.0553532 0.552188 255 255 255
0.156722 0.0568716 0.552048 255 255 255
0.169978 0.0639696 0.555805 255 255 255
-0.049931 -0.0298398 0.505113 255 255 255
-0.0205603 -0.00209629 0.501937 255 255 255
0.16148 0.0777308 0.54653 255 255 255
-0.0559444 -0.00685435 0.487935 255 255 255
0.0396181 0.0466956 0.511652 255 255 255
0.179687 0.0930681 0.550981 255 255 255
0.143587 0.0892654 0.53656 255 255 255
0.014181 0.0486592 0.497382 255 255 255
0.0136374 0.0485483 0.497627 255 255 255
0.110906 0.0813338 0.533563 255 255 255
0.00324777 0.0557766 0.49168 255 255 255
0.109166 0.0918905 0.527226 255 255 255
0.161235 0.102091 0.534869 255 255 255
0.00217598 0.058498 0.490324 255 255 255
0.0393335 0.0707514 0.501956 255 255 255
0.0431983 0.0752374 0.503818 255 255 255
0.044352 0.0738261 0.507053 255 255 255
0.15771 0.111222 0.528118 255 255 255
-0.0609347 0.0481149 0.468465 255 255 255
-0.0258902 0.0598155 0.47951 255 255 255
0.165039 0.115373 0.530603 255 255 255
0.166004 0.116493 0.529595 255 255 255
0.0285628 0.0848853 0.490102 255 255 255
-0.0463233 0.0721759 0.462134 255 255 255
-0.0296899 0.0731532 0.480457 255 255 255
0.0770682 0.106621 0.509016 255 255 255
-0.0313165 0.0845471 0.471867 255 255 255
0.103569 0.120448 0.509318 255 255 255
0.166888 0.133908 0.521116 255 255 255
0.172162 0.134602 0.526513 255 255 255
-0.0384645 0.085989 0.462866 255 255 255
-0.0463657 0.0927222 0.456833 255 255 255
0.0332688 0.12271 0.477121 255 255 255
0.0591074 0.122622 0.487928 255 255 255
0.0565962 0.128423 0.48566 255 255 255
-0.03274 0.112952 0.451899 255 255 255
0.0988964 0.139702 0.498311 255 255 255
0.167956 0.152618 0.516108 255 255 255
0.000624374 0.12548 0.461602 255 255 255
0.026387 0.130035 0.465743 255 255 255
0.0310991 0.128349 0.467784 255 255 255
0.0549219 0.136083 0.481939 255 255 255
0.120641 0.150589 0.503024 255 255 255
0.0347947 0.137395 0.463033 255 255 255
0.0332276 0.141449 0.468052 255 255 255
0.0713927 0.151376 0.483566 255 255 255
0.169012 0.169646 0.506801 255 255 255
0.0359988 0.156042 0.454635 255 255 255
0.035136 0.159318 0.456444 255 255 255
0.169678 0.176821 0.50279 255 255 255
0.0350576 0.166609 0.454428 255 255 255
0.0711149 0.177741 0.485133 255 255 255
-0.0421489 0.158039 0.422307 255 255 255
0.0654064 0.175967 0.472855 255 255 255
0.0652334 0.177632 0.473713 255 255 255
0.0343649 0.180108 0.451189 255 255 255
0.120719 0.201287 0.483276 255 255 255
0.179219 -0.0270479 0.597223 255 255 255
0.166574 -0.0309686 0.592872 255 255 255
0.0202401 -0.10743 0.569735 255 255 255
0.0856047 -0.0674801 0.572792 255 255 255
0.16778 -0.0173459 0.589599 255 255 255
0.192087 -0.00275851 0.594011 255 255 255
0.0207915 -0.0974043 0.564496 255 255 255
0.0144812 -0.0979752 0.582033 255 255 255
0.151292 -0.0195139 0.582238 255 255 255
0.154973 -0.0159016 0.581709 255 255 255
-0.000102452 -0.102474 0.552489 255 255 255
0.0187012 -0.0861657 0.567132 255 255 255
-0.0389661 -0.118706 0.541987 255 255 255
0.019729 -0.0808142 0.562523 255 255 255
0.0808361 -0.0469862 0.565819 255 255 255
0.0946927 -0.03799 0.568089 255 255 255
-0.058828 -0.121094 0.535174 255 255 255
-0.0355768 -0.106254 0.540887 255 255 255
-0.027555 -0.102335 0.54122 255 255 255
0.179855 0.0202817 0.574846 255 255 255
0.16575 0.0167305 0.569109 255 255 255
0.170156 0.0172163 0.571415 255 255 255
0.176062 0.0208815 0.573798 255 255 255
0.109679 -0.0064477 0.561611 255 255 255
0.117163 -0.0039876 0.564411 255 255 255
0.14739 0.014851 0.563157 255 255 255
-0.0516872 -0.0786267 0.525078 255 255 255
0.121099 0.00461411 0.562591 255 255 255
0.16497 0.0293146 0.567096 255 255 255
0.126986 0.0197832 0.55762 255 255 255
0.164904 0.0361755 0.564983 255 255 255
-0.0547164 -0.0709668 0.517366 255 255 255
0.164799 0.0434092 0.562061 255 255 255
0.169455 0.0517016 0.56116 255 255 255
0.171757 0.0535949 0.560776 255 255 255
-0.0640064 -0.0476346 0.504458 255 255 255
-0.0132223 -0.0313632 0.520094 255 255 255
0.0935674 0.0186303 0.543629 255 255 255
0.0933314 0.0186563 0.543723 255 255 255
0.0934948 0.0229729 0.542383 255 255 255
0.187307 0.0658374 0.562996 255 255 255
-0.0182227 -0.0214534 0.514314 255 255 255
0.0761373 0.0216797 0.535722 255 255 255
0.143239 0.0529801 0.550747 255 255 255
0.164627 0.0584635 0.556397 255 255 255
0.164627 0.0584635 0.556397 255 255 255
0.16944 0.0598707 0.558547 255 255 255
0.172112 0.0641983 0.557104 255 255 255
-0.0503502 -0.0243632 0.50085 255 255 255
-0.0494516 -0.0228834 0.502278 255 255 255
0.16177 0.0651322 0.551581 255 255 255
0.165656 0.0660862 0.553326 255 255 255
-0.048371 -0.0171279 0.500092 255 255 255
0.0603169 0.0280198 0.529896 255 255 255
0.161963 0.0682619 0.549789 255 255 255
0.161267 0.0678309 0.550336 255 255 255
0.168501 0.0777918 0.549925 255 255 255
0.0115275 0.0242506 0.506044 255 255 255
0.0383491 0.0326601 0.516554 255 255 255
0.180955 0.0892419 0.553047 255 255 255
-0.0544949 0.0109183 0.48557 255 255 255
0.0323429 0.0436367 0.509929 255 255 255
0.0790262 0.0552956 0.525171 255 255 255
0.0825492 0.0586809 0.524929 255 255 255
0.158169 0.0840368 0.542113 255 255 255
-0.0427222 0.0182484 0.488573 255 255 255
-0.0256402 0.0233742 0.492837 255 255 255
0.0272002 0.0496229 0.504802 255 255 255
0.0660157 0.0566801 0.518779 255 255 255
0.0660157 0.0566801 0.518779 255 255 255
0.15983 0.0902986 0.540227 255 255 255
0.159615 0.0902516 0.540405 255 255 255
0.00954887 0.0445452 0.497041 255 255 255
0.0018819 0.047651 0.494349 255 255 255
0.151894 0.0950241 0.534129 255 255 255
0.154809 0.0970731 0.534172 255 255 255
0.161983 0.100016 0.536068 255 255 255
0.179897 0.105094 0.544619 255 255 255
-0.0170621 0.0457168 0.487171 255 255 255
0.0031325 0.0513927 0.4929 255 255 255
-0.00306051 0.0538334 0.489687 255 255 255
0.0776219 0.0790638 0.519832 255 255 255
0.0766129 0.0785703 0.517224 255 255 255
0.181626 0.11426 0.545389 255 255 255
-0.00761934 0.0534873 0.487876 255 255 255
-0.00533324 0.0592847 0.486963 255 255 255
-0.00883172 0.0600498 0.485227 255 255 255
-0.00397534 0.0616699 0.486611 255 255 255
0.0120368 0.0620278 0.491533 255 255 255
0.0290264 0.0673383 0.495085 255 255 255
0.0437339 0.0748084 0.505346 255 255 255
0.0455816 0.0771388 0.508902 255 255 255
0.026007 0.0780342 0.490342 255 255 255
0.0392329 0.0770058 0.499462 255 255 255
0.0442182 0.0858422 0.502867 255 255 255
0.167704 0.119271 0.533883 255 255 255
0.17925 0.124052 0.536399 255 255 255
-0.0369055 0.060426 0.47372 255 255 255
-0.0345298 0.0628462 0.473515 255 255 255
0.0289518 0.0824793 0.492571 255 255 255
0.07709 0.0991087 0.511105 255 255 255
0.176162 0.126812 0.534372 255 255 255
0.00421258 0.0873063 0.479752 255 255 255
0.0262141 0.0863227 0.486312 255 255 255
0.0289275 0.0916426 0.487541 255 255 255
0.106471 0.113037 0.513267 255 255 255
0.168096 0.12988 0.524192 255 255 255
-0.0467821 0.0803206 0.460916 255 255 255
0.0337098 0.0977276 0.482411 255 255 255
0.164435 0.130997 0.521235 255 255 255
0.164257 0.132862 0.520384 255 255 255
-0.0633648 0.084011 0.451661 255 255 255
0.0347059 0.105267 0.485768 255 255 255
0.102701 0.121893 0.508337 255 255 255
0.129671 0.129747 0.513855 255 255 255
0.182622 0.141741 0.528978 255 255 255
-0.0438623 0.0942392 0.457693 255 255 255
-0.0367127 0.0953383 0.459968 255 255 255
0.0797923 0.123398 0.49509 255 255 255
0.0807901 0.127335 0.4949 255 255 255
0.173527 0.1458 0.524319 255 255 255
0.0164999 0.11452 0.467487 255 255 255
0.0333267 0.118367 0.478388 255 255 255
0.160776 0.148551 0.510272 255 255 255
-0.0357444 0.114727 0.449861 255 255 255
0.0765122 0.134729 0.491589 255 255 255
0.0787103 0.133856 0.492995 255 255 255
0.10715 0.144418 0.500282 255 255 255
-0.0190257 0.119214 0.455494 255 255 255
0.023623 0.127256 0.464649 255 255 255
0.0299234 0.133556 0.463239 255 255 255
0.0427149 0.137238 0.476628 255 255 255
0.0832274 0.142437 0.490984 255 255 255
0.166377 0.158242 0.509344 255 255 255
0.168783 0.158319 0.512654 255 255 255
0.173391 0.16158 0.518113 255 255 255
-0.0451369 0.121323 0.440491 255 255 255
-0.044368 0.12306 0.441163 255 255 255
-0.0357913 0.130157 0.444952 255 255 255
-0.0299212 0.12766 0.448568 255 255 255
0.0313925 0.138537 0.461224 255 255 255
0.031187 0.138573 0.461301 255 255 255
0.0349789 0.13899 0.463566 255 255 255
0.161935 0.162588 0.505089 255 255 255
-0.0444246 0.135512 0.43888 255 255 255
-0.0395657 0.135509 0.441718 255 255 255
0.0332108 0.146023 0.468334 255 255 255
0.0678618 0.155418 0.480296 255 255 255
-0.0431643 0.1398 0.438501 255 255 255
0.0343791 0.153694 0.461071 255 255 255
0.0400389 0.153149 0.468211 255 255 255
0.0701667 0.160189 0.484477 255 255 255
0.179112 0.17461 0.514125 255 255 255
-0.0264592 0.151647 0.440499 255 255 255
0.0648691 0.164431 0.476301 255 255 255
0.0681025 0.165277 0.483546 255 255 255
0.0343779 0.165946 0.460292 255 255 255
0.0683115 0.175213 0.478544 255 255 255
0.15724 0.180239 0.494059 255 255 255
0.162088 0.179307 0.496063 255 255 255
0.0640489 0.174831 0.471294 255 255 255
0.155634 0.183721 0.48889 255 255 255
0.035717 0.180373 0.448506 255 255 255
0.0646825 0.183371 0.470949 255 255 255
0.161951 0.189567 0.488897 255 255 255
0.0611264 0.186822 0.464884 255 255 255
0.0695077 0.191849 0.477846 255 255 255
0.169061 0.198351 0.496812 255 255 255
-0.0171546 0.185553 0.430739 255 255 255
0.0290659 0.18846 0.435857 255 255 255
0.0335703 0.191501 0.434449 255 255 255
0.158277 0.207318 0.478418 255 255 255
0.158277 0.207318 0.478418 255 255 255
0.179171 0.212541 0.49823 255 255 255
0.156614 -0.0444699 0.593813 255 255 255
0.174311 -0.0260238 0.594381 255 255 255
0.171295 -0.0246207 0.593223 255 255 255
0.178925 -0.0240291 0.595963 255 255 255
0.165131 -0.0233571 0.58928 255 255 255
0.00394479 -0.111215 0.558272 255 255 255
0.158628 -0.012407 0.58199 255 255 255
-0.0125285 -0.108778 0.549727 255 255 255
0.160801 -0.00740914 0.581578 255 255 255
0.0747978 -0.0382402 0.559982 255 255 255
0.12963 -0.012804 0.571344 255 255 255
0.18666 0.0206978 0.578203 255 255 255
0.107404 -0.0126271 0.563816 255 255 255
0.164193 0.0183414 0.569197 255 255 255
0.180756 0.0219101 0.575462 255 255 255
0.0568283 -0.0390587 0.551761 255 255 255
0.15477 0.0159811 0.565799 255 255 255
0.12171 0.00677825 0.561551 255 255 255
0.151724 0.0210695 0.563253 255 255 255
0.155324 0.0213868 0.564914 255 255 255
-0.053931 -0.0790881 0.522708 255 255 255
-0.0560635 -0.074803 0.519005 255 255 255
-0.0515772 -0.072605 0.520474 255 255 255
0.0484164 -0.0242125 0.542566 255 255 255
0.0580449 -0.014785 0.543273 255 255 255
0.137169 0.0199184 0.560505 255 255 255
0.153868 0.02942 0.563096 255 255 255
0.16477 0.0328014 0.565964 255 255 255
-0.0314263 -0.0518932 0.518299 255 255 255
-0.0258603 -0.047964 0.519209 255 255 255
0.025011 -0.0259571 0.532556 255 255 255
0.161116 0.0397792 0.561098 255 255 255
0.0367788 -0.0100774 0.531776 255 255 255
0.106377 0.0173852 0.549429 255 255 255
0.127417 0.0285312 0.554108 255 255 255
0.0872701 0.017724 0.541587 255 255 255
0.0949947 0.0199843 0.544818 255 255 255
0.181528 0.0601128 0.562884 255 255 255
0.0802565 0.0211516 0.537754 255 255 255
0.166678 0.0593511 0.557352 255 255 255
0.0835302 0.0312706 0.53537 255 255 255
0.0943016 0.0327748 0.539653 255 255 255
0.165657 0.0639201 0.554189 255 255 255
0.165227 0.0682649 0.552353 255 255 255
0.16524 0.0682753 0.552334 255 255 255
0.154763 0.0659795 0.548185 255 255 255
0.137525 0.0715164 0.541564 255 255 255
0.0512701 0.0499822 0.513836 255 255 255
0.160972 0.0890589 0.541267 255 255 255
0.164713 0.0867967 0.544012 255 255 255
0.110223 0.0825147 0.531799 255 255 255
0.000274977 0.056095 0.490304 255 255 255
0.110827 0.0955805 0.529579 255 255 255
0.169765 0.113827 0.53662 255 255 255
0.0230767 0.0760831 0.489863 255 255 255
0.0232443 0.0761169 0.489797 255 255 255
0.0309821 0.077323 0.495631 255 255 255
0.0373745 0.0780321 0.497789 255 255 255
0.181767 0.123044 0.542006 255 255 255
0.0210423 0.0805292 0.48633 255 255 255
0.152441 0.117868 0.523978 255 255 255
0.160674 0.120884 0.526209 255 255 255
0.182192 0.12836 0.536804 255 255 255
0.167965 0.130016 0.522622 255 255 255
0.169916 0.127828 0.531264 255 255 255
0.18485 0.132918 0.531766 255 255 255
-0.0399921 0.082439 0.463182 255 255 255
0.0785097 0.110691 0.510752 255 255 255
0.155912 0.128803 0.517774 255 255 255
0.167756 0.133632 0.524095 255 255 255
0.07033 0.118406 0.497106 255 255 255
0.166142 0.144426 0.516971 255 255 255
0.16786 0.143955 0.518033 255 255 255
0.0338507 0.116885 0.474796 255 255 255
0.153814 0.147602 0.508216 255 255 255
0.0329438 0.125725 0.475775 255 255 255
0.0432436 0.126681 0.480741 255 255 255
0.169766 0.15478 0.519389 255 255 255
0.063836 0.13689 0.485075 255 255 255
0.173122 0.159547 0.518969 255 255 255
0.177236 0.162044 0.518525 255 255 255
0.02829 0.143413 0.458279 255 255 255
0.0342103 0.144347 0.460163 255 255 255
0.0592381 0.152488 0.477269 255 255 255
0.156225 0.163524 0.501938 255 255 255
0.169776 0.171906 0.503759 255 255 255
-0.0261097 0.148634 0.44175 255 255 255
0.0615963 0.16362 0.474327 255 255 255
0.0352502 0.167819 0.453794 255 255 255
0.0352502 0.167819 0.453794 255 255 255
0.0650513 0.177939 0.471356 255 255 255
0.0341325 0.180967 0.454032 255 255 255
0.0650426 0.181863 0.471608 255 255 255
0.165789 0.197269 0.487309 255 255 255
0.177233 -0.0261445 0.595758 255 255 255
0.166658 -0.0277599 0.591257 255 255 255
0.169661 -0.0255742 0.592064 255 255 255
0.169852 -0.0254799 0.591964 255 255 255
0.188743 -0.0107928 0.595447 255 255 255
0.0167325 -0.0898715 0.575209 255 255 255
0.0212588 -0.0633041 0.552453 255 255 255
0.165688 0.024781 0.5691 255 255 255
0.169089 0.0260823 0.569824 255 255 255
0.168862 0.0258635 0.570023 255 255 255
0.175051 0.0265956 0.572186 255 255 255
0.178844 0.0324396 0.571825 255 255 255
0.162527 0.0252213 0.567753 255 255 255
0.173792 0.0306678 0.570163 255 255 255
0.042667 -0.00969778 0.536007 255 255 255
0.163832 0.0535289 0.557296 255 255 255
0.182779 0.0609213 0.563758 255 255 255
0.092048 0.0273063 0.540341 255 255 255
0.154265 0.0576176 0.551811 255 255 255
0.163796 0.0568014 0.555411 255 255 255
0.163677 0.0619948 0.553581 255 255 255
-0.0596311 -0.0265603 0.497099 255 255 255
0.071387 0.0291084 0.534528 255 255 255
0.178543 0.0837737 0.55272 255 255 255
-0.00104084 0.0204926 0.503503 255 255 255
0.130947 0.0712781 0.539976 255 255 255
0.167507 0.08696 0.546588 255 255 255
0.0159984 0.0309498 0.50458 255 255 255
0.101806 0.0632956 0.530928 255 255 255
0.164328 0.0909141 0.542414 255 255 255
-0.0381042 0.0217521 0.487426 255 255 255
0.163476 0.0965935 0.538388 255 255 255
0.16735 0.0962103 0.542578 255 255 255
0.0174336 0.0510106 0.498302 255 255 255
0.151489 0.0984039 0.533068 255 255 255
0.155595 0.100745 0.532939 255 255 255
0.110597 0.109751 0.524501 255 255 255
0.158928 0.119375 0.525821 255 255 255
0.168277 0.131125 0.525888 255 255 255
0.18052 0.140054 0.528592 255 255 255
0.132018 0.132208 0.513895 255 255 255
0.132018 0.132208 0.513895 255 255 255
0.174203 0.13957 0.52593 255 255 255
0.104613 0.129828 0.503722 255 255 255
0.123313 0.135099 0.510327 255 255 255
0.123313 0.135099 0.510327 255 255 255
0.0326846 0.119618 0.476653 255 255 255
0.0986355 0.132539 0.501165 255 255 255
0.107813 0.137601 0.503074 255 255 255
0.155422 0.1461 0.508817 255 255 255
0.0349997 0.130561 0.470719 255 255 255
0.0334097 0.132257 0.464634 255 255 255
0.0611788 0.138756 0.484089 255 255 255
0.0622301 0.15119 0.479089 255 255 255
0.0622899 0.15119 0.479065 255 255 255
0.162128 0.165028 0.501526 255 255 255
0.0721969 0.159853 0.487346 255 255 255
0.0662124 0.185709 0.472699 255 255 255
0.167494 0.188772 0.491387 255 255 255
0.0653395 0.187377 0.468158 255 255 255
0.123242 0.197359 0.486041 255 255 255
0.166184 0.0442041 0.56366 255 255 255
-0.0110363 -0.0330892 0.521029 255 255 255
0.154664 0.0427272 0.557071 255 255 255
0.152649 0.0455676 0.555783 255 255 255
0.173841 0.0666538 0.557357 255 255 255
-0.0561357 -0.0229944 0.498285 255 255 255
0.151445 0.0704294 0.545695 255 255 255
0.155297 0.0742739 0.545026 255 255 255
0.168336 0.0812377 0.54816 255 255 255
0.151596 0.0787329 0.542111 255 255 255
0.156421 0.0794406 0.543407 255 255 255
0.165532 0.0827917 0.546645 255 255 255
0.137596 0.0782343 0.539584 255 255 255
0.160484 0.0978066 0.536739 255 255 255
0.17397 0.116432 0.537886 255 255 255
0.17397 0.116432 0.537886 255 255 255
0.0186456 0.0726144 0.489985 255 255 255
0.0292857 0.073945 0.494641 255 255 255
-0.0328615 0.0726332 0.472004 255 255 255
0.155307 0.123877 0.523173 255 255 255
0.109328 0.1259 0.506001 255 255 255
0.156933 0.143233 0.51283 255 255 255
0.173723 0.144004 0.525228 255 255 255
0.00607162 0.114688 0.465241 255 255 255
0.0515391 0.125575 0.484583 255 255 255
0.0708131 0.135717 0.488886 255 255 255
0.118719 0.144833 0.504924 255 255 255
0.173279 0.163504 0.517201 255 255 255
0.163357 0.161845 0.506903 255 255 255
0.0335987 0.150796 0.464244 255 255 255
0.0340253 0.170676 0.455672 255 255 255
0.0655394 0.181504 0.474012 255 255 255
-0.0150407 -0.0976314 0.545753 255 255 255
0.158788 0.0574882 0.55301 255 255 255
0.158826 0.0647295 0.550459 255 255 255
0.0256857 0.0200041 0.514896 255 255 255
0.0258207 0.0201974 0.515069 255 255 255
0.139184 0.0674353 0.544044 255 255 255
0.0701942 0.0574366 0.520281 255 255 255
0.174919 0.103312 0.542527 255 255 255
0.174572 0.103285 0.542706 255 255 255
-0.015343 0.0429936 0.487834 255 255 255
0.106991 0.0887829 0.524595 255 255 255
0.007677 0.0607313 0.48938 255 255 255
0.0299962 0.0653271 0.496468 255 255 255
0.165743 0.109485 0.535938 255 255 255
0.0324217 0.111952 0.475897 255 255 255
0.033634 0.116246 0.475041 255 255 255
0.163384 0.147868 0.511865 255 255 255
0.164834 0.154272 0.509785 255 255 255
-0.0442713 0.130589 0.439621 255 255 255
0.0343224 0.166101 0.456725 255 255 255
0.16579 0.19142 0.489639 255 255 255
0.182774 0.079521 0.55558 255 255 255
0.0333609 0.0669946 0.50107 255 255 255
0.0333609 0.0669946 0.50107 255 255 255
0.0546779 0.17389 0.466536 255 255 255
0.151165 0.0635026 0.548991 255 255 255
0.0224931 -0.144974 0.584935 255 255 255
0.0060447 -0.146631 0.619695 255 255 255
0.00341053 -0.148552 0.628375 255 255 255
-0.0136446 -0.165235 0.572398 255 255 255
0.0107668 -0.143238 0.596904 255 255 255
0.0142447 -0.13734 0.589473 255 255 255
0.0106339 -0.144236 0.599081 255 255 255
-0.00987981 -0.14562 0.666094 255 255 255
-0.00549436 -0.114807 0.554268 255 255 255
0.226584 0.0248731 0.593465 255 255 255
-0.0215337 -0.11903 0.551039 255 255 255
0.0782641 -0.0565056 0.567568 255 255 255
0.0781503 -0.0546531 0.567493 255 255 255
-0.0218049 -0.0888936 0.53925 255 255 255
0.201046 0.039865 0.579492 255 255 255
0.0832972 0.00780335 0.54095 255 255 255
0.164567 0.0489636 0.560386 255 255 255
0.192232 0.0663328 0.56494 255 255 255
0.00408183 0.00143366 0.509007 255 255 255
0.165452 0.0720393 0.550922 255 255 255
0.0857949 0.06019 0.525655 255 255 255
0.182553 0.0945216 0.557003 255 255 255
0.183541 0.0955191 0.559055 255 255 255
0.0547862 0.0500289 0.515577 255 255 255
0.18063 0.100013 0.550001 255 255 255
0.181777 0.0998487 0.552255 255 255 255
0.182628 0.102575 0.554673 255 255 255
0.181949 0.106542 0.549863 255 255 255
0.183606 0.106176 0.554811 255 255 255
0.0457193 0.0733036 0.503765 255 255 255
0.183873 0.115967 0.550935 255 255 255
0.0433001 0.082294 0.502468 255 255 255
0.109577 0.102576 0.523018 255 255 255
0.157511 0.112339 0.528494 255 255 255
0.182402 0.124412 0.542766 255 255 255
0.18312 0.125065 0.545066 255 255 255
0.159441 0.120701 0.52506 255 255 255
0.0739758 0.126559 0.492554 255 255 255
0.168599 0.146779 0.516025 255 255 255
0.185666 0.149901 0.526966 255 255 255
0.166934 0.158194 0.509101 255 255 255
-0.0605058 0.121337 0.434743 255 255 255
0.0506635 0.146701 0.476236 255 255 255
0.0641892 0.162827 0.475978 255 255 255
-0.0498463 0.146003 0.423388 255 255 255
-0.0208166 0.15794 0.440217 255 255 255
0.157309 0.180248 0.494033 255 255 255
-0.0413324 0.174922 0.416742 255 255 255
-0.0281951 0.183539 0.42708 255 255 255
0.00481226 -0.147947 0.625237 255 255 255
-0.00704704 -0.149224 0.659154 255 255 255
0.157336 -0.0470825 0.596518 255 255 255
0.01586 -0.126102 0.583318 255 255 255
0.191468 -0.0183796 0.598848 255 255 255
0.196011 -0.0177198 0.600702 255 255 255
0.0187825 -0.121759 0.573031 255 255 255
-0.0549313 -0.142397 0.547258 255 255 255
0.150891 -0.0197226 0.582429 255 255 255
0.0111902 -0.0709761 0.545415 255 255 255
0.0689849 -0.0431925 0.558912 255 255 255
0.105807 -0.0247481 0.567267 255 255 255
0.180702 0.0218701 0.57548 255 255 255
0.0232904 -0.0463929 0.540271 255 255 255
0.176164 0.0300525 0.572239 255 255 255
0.178632 0.0287034 0.574366 255 255 255
0.04128 -0.0171252 0.534448 255 255 255
0.123502 0.016355 0.556325 255 255 255
-0.0550893 -0.0546403 0.510088 255 255 255
0.21213 0.0682593 0.572789 255 255 255
0.207054 0.0678856 0.570877 255 255 255
0.18913 0.0675239 0.562496 255 255 255
0.191124 0.0778845 0.5607 255 255 255
-0.0519637 -0.00102046 0.488122 255 255 255
0.0214191 0.0199471 0.51139 255 255 255
0.107465 0.0596685 0.535074 255 255 255
0.186507 0.0847985 0.559329 255 255 255
0.0280288 0.0348548 0.51048 255 255 255
0.0183192 0.0406031 0.502037 255 255 255
0.0183192 0.0406031 0.502037 255 255 255
0.102926 0.066414 0.530253 255 255 255
0.157149 0.0859838 0.541132 255 255 255
0.180522 0.0947781 0.551115 255 255 255
0.182811 0.0975883 0.556292 255 255 255
0.183584 0.0971939 0.55778 255 255 255
0.109504 0.0816644 0.528935 255 255 255
0.109005 0.0851801 0.527899 255 255 255
0.108835 0.0876817 0.527041 255 255 255
0.215471 0.121187 0.552146 255 255 255
0.0375011 0.0689591 0.501158 255 255 255
0.175053 0.112355 0.539188 255 255 255
0.166443 0.116904 0.534964 255 255 255
0.181198 0.123926 0.540347 255 255 255
0.108925 0.109536 0.518564 255 255 255
0.107659 0.117975 0.511869 255 255 255
0.0229158 0.110549 0.473568 255 255 255
0.038594 0.122596 0.479988 255 255 255
0.061972 0.128865 0.487621 255 255 255
-0.0622214 0.116103 0.435192 255 255 255
0.188929 0.168322 0.522494 255 255 255
-0.0267586 0.140665 0.444575 255 255 255
0.159003 0.167649 0.499148 255 255 255
0.0730984 0.163561 0.490432 255 255 255
0.159261 0.169319 0.49899 255 255 255
0.184586 0.179199 0.515707 255 255 255
0.19877 0.19197 0.516788 255 255 255
0.199224 0.196687 0.515065 255 255 255
0.167373 0.197032 0.488811 255 255 255
0.00639654 -0.148429 0.618405 255 255 255
0.15559 -0.0454332 0.594693 255 255 255
0.203471 -0.00664986 0.601114 255 255 255
0.0211271 -0.0790696 0.55854 255 255 255
0.226722 0.0368183 0.590944 255 255 255
0.146802 0.000812015 0.572293 255 255 255
0.213199 0.0322132 0.587051 255 255 255
0.212387 0.0342005 0.585937 255 255 255
-0.0202661 -0.0796624 0.536416 255 255 255
0.132173 -0.00424386 0.569237 255 255 255
0.178339 0.0322604 0.572071 255 255 255
0.200357 0.0376354 0.57931 255 255 255
0.207348 0.0419637 0.581417 255 255 255
0.211596 0.0514644 0.580087 255 255 255
0.202914 0.059469 0.572627 255 255 255
0.0307016 -0.00961778 0.526709 255 255 255
0.168141 0.0541808 0.560119 255 255 255
0.201767 0.0675109 0.56849 255 255 255
0.209688 0.0694672 0.571917 255 255 255
0.152935 0.0496553 0.55371 255 255 255
0.0373747 0.00891444 0.52477 255 255 255
0.210533 0.0864319 0.565507 255 255 255
0.00391211 0.0344639 0.500052 255 255 255
0.0270982 0.0701136 0.495122 255 255 255
-0.0385279 0.0749743 0.46193 255 255 255
0.198314 0.134315 0.537439 255 255 255
0.184543 0.145042 0.529053 255 255 255
0.086166 0.131408 0.496658 255 255 255
0.179654 0.148182 0.525854 255 255 255
0.19864 0.15149 0.532857 255 255 255
0.187902 0.161498 0.52561 255 255 255
0.188892 0.162542 0.527228 255 255 255
0.188892 0.162542 0.527228 255 255 255
0.0582911 0.147031 0.479208 255 255 255
0.191932 0.170412 0.523033 255 255 255
0.18666 0.175487 0.518163 255 255 255
0.18666 0.175487 0.518163 255 255 255
0.199564 0.176802 0.523221 255 255 255
0.191718 0.191507 0.514313 255 255 255
0.181261 0.216215 0.496758 255 255 255
0.0164518 -0.140058 0.588474 255 255 255
0.0211623 -0.120964 0.577751 255 255 255
0.223858 0.0313855 0.591369 255 255 255
0.205532 0.0298436 0.584124 255 255 255
0.225676 0.0439791 0.587223 255 255 255
0.176342 0.0342529 0.569965 255 255 255
0.21245 0.0639323 0.575022 255 255 255
0.103586 0.0284682 0.544627 255 255 255
-0.00142402 0.0146694 0.504083 255 255 255
0.031496 0.0392246 0.507305 255 255 255
0.177506 0.0977466 0.546522 255 255 255
0.0231796 0.0497274 0.500157 255 255 255
0.16672 0.0982766 0.541274 255 255 255
0.0434529 0.0949353 0.49627 255 255 255
0.174034 0.133338 0.527852 255 255 255
0.188972 0.148049 0.530162 255 255 255
0.1968 0.149334 0.532391 255 255 255
0.0742846 0.160977 0.489677 255 255 255
-0.0424718 -0.184173 0.566454 255 255 255
0.0202532 -0.13443 0.582697 255 255 255
0.00751297 -0.144758 0.606324 255 255 255
0.191551 0.0428184 0.574545 255 255 255
0.120953 0.0302431 0.551277 255 255 255
0.204225 0.0696953 0.568955 255 255 255
0.0661955 0.0609342 0.517165 255 255 255
0.0279725 0.0504047 0.50328 255 255 255
0.0343282 0.088708 0.492682 255 255 255
0.204897 0.138164 0.539039 255 255 255
0.175836 0.136366 0.527757 255 255 255
0.189071 0.145172 0.531296 255 255 255
0.0276456 0.114781 0.470514 255 255 255
-0.0326961 0.15213 0.437649 255 255 255
-0.0423244 0.156026 0.431562 255 255 255
0.0643679 -0.0112412 0.544909 255 255 255
0.128593 0.0259765 0.556341 255 255 255
-0.0594001 0.000726904 0.4852 255 255 255
0.176737 0.110172 0.540487 255 255 255
0.19818 0.136464 0.536972 255 255 255
0.0620733 0.182964 0.467226 255 255 255
0.0261245 0.0117575 0.518098 255 255 255
0.172953 0.126229 0.533391 255 255 255
0.166863 0.101512 0.539588 255 255 255
0.180613 0.125009 0.538634 255 255 255
0.168091 0.154408 0.516471 255 255 255
0.178052 0.156887 0.522679 255 255 255
0.21649 -0.0403088 0.672848 255 255 255
0.00428847 -0.194306 0.590349 255 255 255
0.0119263 -0.169963 0.616331 255 255 255
0.00851922 -0.174224 0.581829 255 255 255
-0.00450117 -0.178269 0.58103 255 255 255
0.00883338 -0.164146 0.619145 255 255 255
0.0163888 -0.153783 0.605641 255 255 255
0.0157973 -0.156392 0.608439 255 255 255
0.00924162 -0.154352 0.614585 255 255 255
0.232299 -0.0178253 0.628226 255 255 255
-0.00340695 -0.134927 0.638437 255 255 255
0.235618 -0.00634575 0.612789 255 255 255
0.219186 0.00734483 0.653471 255 255 255
0.231822 0.0186254 0.617736 255 255 255
0.23329 0.0353575 0.61261 255 255 255
0.228353 0.0405448 0.624453 255 255 255
0.225307 0.0437087 0.627185 255 255 255
0.115381 -0.0159133 0.567523 255 255 255
0.23062 0.0447122 0.611899 255 255 255
0.231853 0.057006 0.604701 255 255 255
0.236841 0.0635432 0.589328 255 255 255
0.230084 0.0781705 0.601271 255 255 255
0.227361 0.0805927 0.60752 255 255 255
0.227504 0.0811255 0.606197 255 255 255
0.232752 0.0837665 0.593885 255 255 255
0.224487 0.0857753 0.612546 255 255 255
0.224639 0.0899757 0.61103 255 255 255
0.224665 0.0836062 0.614921 255 255 255
0.222703 0.0870406 0.616392 255 255 255
0.056758 0.0183698 0.529616 255 255 255
0.225663 0.0931185 0.606895 255 255 255
0.223285 0.0922294 0.613921 255 255 255
-0.0146396 -0.00283261 0.503958 255 255 255
-0.00626009 -0.00206438 0.506886 255 255 255
0.236575 0.095027 0.579023 255 255 255
0.234591 0.0971842 0.583928 255 255 255
0.229048 0.098442 0.596247 255 255 255
0.230354 0.100941 0.590966 255 255 255
0.225744 0.100537 0.60405 255 255 255
-0.0685619 -0.0106457 0.485553 255 255 255
0.235598 0.101836 0.579757 255 255 255
0.214613 0.108428 0.613193 255 255 255
0.237273 0.108092 0.575746 255 255 255
0.238129 0.108535 0.573719 255 255 255
0.237287 0.110327 0.57535 255 255 255
0.234929 0.112003 0.580872 255 255 255
0.229236 0.120509 0.58699 255 255 255
0.110421 0.0805977 0.530721 255 255 255
0.242452 0.120079 0.561997 255 255 255
0.239868 0.123541 0.56765 255 255 255
0.239839 0.123547 0.567654 255 255 255
0.227289 0.130104 0.58904 255 255 255
0.242238 0.127247 0.559566 255 255 255
0.238809 0.128249 0.569054 255 255 255
0.226631 0.133616 0.590179 255 255 255
0.246899 0.136483 0.553069 255 255 255
0.240385 0.13287 0.562949 255 255 255
0.0774076 0.101386 0.509889 255 255 255
0.180815 0.125194 0.541029 255 255 255
0.0446151 0.101173 0.497813 255 255 255
0.109364 0.11454 0.517047 255 255 255
0.167598 0.133063 0.524785 255 255 255
0.229303 0.15783 0.577733 255 255 255
0.0463029 0.114587 0.494284 255 255 255
-0.0381858 0.109976 0.44973 255 255 255
0.067031 0.174435 0.476181 255 255 255
0.0668606 0.174341 0.476272 255 255 255
0.221296 -0.0529235 0.662506 255 255 255
0.223005 -0.0496362 0.654476 255 255 255
0.214705 -0.0550845 0.687047 255 255 255
0.232962 -0.0414242 0.631735 255 255 255
0.216701 -0.0448926 0.676073 255 255 255
0.216442 -0.0433803 0.674172 255 255 255
0.215278 -0.0332638 0.672077 255 255 255
0.0177799 -0.161716 0.604708 255 255 255
0.0149278 -0.162863 0.600749 255 255 255
0.0108575 -0.165256 0.614041 255 255 255
0.0165369 -0.159571 0.608176 255 255 255
0.00908611 -0.16014 0.617995 255 255 255
0.00445375 -0.157194 0.627779 255 255 255
0.232434 -0.0209609 0.630321 255 255 255
0.018045 -0.152005 0.602623 255 255 255
0.232505 -0.0189746 0.626915 255 255 255
0.233244 -0.0151372 0.624335 255 255 255
0.231826 -0.0153881 0.628236 255 255 255
0.229866 -0.0150693 0.633085 255 255 255
0.22849 -0.0160794 0.637256 255 255 255
8.38793e-05 -0.1411 0.636785 255 255 255
0.235254 -0.0123292 0.615413 255 255 255
0.235396 -0.0122614 0.615351 255 255 255
0.227369 -0.0119376 0.638697 255 255 255
0.219501 -0.00870567 0.661009 255 255 255
0.178501 -0.0313354 0.597392 255 255 255
0.193309 -0.0299005 0.603432 255 255 255
0.23189 -0.0020068 0.623582 255 255 255
0.232173 -0.000960428 0.621932 255 255 255
0.221214 0.00460233 0.647014 255 255 255
0.220791 3.2228e-05 0.651379 255 255 255
0.235562 0.0173188 0.606833 255 255 255
0.233869 0.0254961 0.596061 255 255 255
0.229812 0.0363847 0.621192 255 255 255
0.224152 0.0428955 0.636084 255 255 255
0.237161 0.0433881 0.59439 255 255 255
0.234255 0.0481567 0.601193 255 255 255
0.228903 0.0472819 0.616098 255 255 255
0.227714 0.0517873 0.616573 255 255 255
0.222602 0.051288 0.632475 255 255 255
0.223218 0.0533175 0.630245 255 255 255
-0.0394221 -0.0712734 0.522015 255 255 255
0.23492 0.0562705 0.596713 255 255 255
0.230149 0.0545237 0.608091 255 255 255
0.223492 0.0550621 0.629287 255 255 255
0.188073 0.0373028 0.573657 255 255 255
0.231998 0.0597368 0.603567 255 255 255
0.231915 0.0606299 0.603174 255 255 255
0.234552 0.0619097 0.59604 255 255 255
0.235453 0.0655701 0.592464 255 255 255
0.234767 0.0654789 0.594198 255 255 255
0.234168 0.066281 0.595502 255 255 255
0.227481 0.0676464 0.610401 255 255 255
0.223432 0.075173 0.618618 255 255 255
0.0888009 0.0141973 0.54328 255 255 255
0.237272 0.0730144 0.58511 255 255 255
0.228891 0.0797994 0.604958 255 255 255
0.226142 0.0818076 0.610926 255 255 255
0.0498319 0.00892028 0.528207 255 255 255
0.237203 0.0847695 0.581075 255 255 255
0.232285 0.0808464 0.595859 255 255 255
0.22863 0.086059 0.601232 255 255 255
0.227488 0.0871801 0.604135 255 255 255
0.224878 0.0896305 0.609798 255 255 255
0.23799 0.086016 0.578417 255 255 255
0.223326 0.0930631 0.613133 255 255 255
-0.0261322 -0.00164855 0.497822 255 255 255
-0.00659662 0.00251243 0.506884 255 255 255
0.233822 0.0961237 0.586443 255 255 255
0.223503 0.100282 0.610236 255 255 255
0.234556 0.103079 0.581883 255 255 255
