ply
format ascii 1.0
element vertex 1281
property float x
property float y
property float z
property uchar red
property uchar green
property uchar blue
end_header
1.98803 1.14133 11.2817 255 255 255
2.04906 1.21901 11.247 255 255 255
2.13277 1.23765 11.2728 255 255 255
2.13593 1.23848 11.2851 255 255 255
2.21642 1.152 11.3819 255 255 255
-1.37716 1.24224 9.44782 255 255 255
-1.25572 1.23478 9.51244 255 255 255
-0.946067 1.24021 9.67893 255 255 255
0.247972 1.20683 10.3117 255 255 255
1.00266 1.28486 10.652 255 255 255
1.00266 1.28486 10.652 255 255 255
1.4032 1.24248 10.9018 255 255 255
1.67785 1.29245 11.02 255 255 255
1.74812 1.24878 11.0649 255 255 255
2.56558 1.29932 11.4661 255 255 255
2.56579 1.29917 11.4668 255 255 255
-1.35933 1.31032 9.43101 255 255 255
-1.35933 1.31032 9.43101 255 255 255
-1.21475 1.29857 9.5017 255 255 255
-0.959181 1.30483 9.64037 255 255 255
-0.87514 1.29952 9.67648 255 255 255
-0.635575 1.51196 9.82098 255 255 255
0.0757508 1.53194 10.2104 255 255 255
-0.310471 2.09314 7.61068 255 255 255
-0.857618 -0.769369 10.3679 255 255 255
1.86987 -0.330523 11.0085 255 255 255
2.07206 -0.277528 11.1233 255 255 255
2.84331 -0.251809 11.5216 255 255 255
3.87879 -0.26465 12.0681 255 255 255
-0.320302 -0.0696017 9.96023 255 255 255
0.950045 -0.119093 10.568 255 255 255
0.950958 -0.118962 10.5682 255 255 255
-1.4422 0.0236002 9.43537 255 255 255
-0.577117 0.206483 9.91736 255 255 255
1.26647 0.300808 10.8731 255 255 255
-1.76364 0.456389 9.19506 255 255 255
-0.905028 0.42911 9.77776 255 255 255
-2.92997 0.526933 8.46474 255 255 255
-2.91753 0.588047 8.44354 255 255 255
-2.47768 0.761011 8.93708 255 255 255
-2.16217 0.761806 9.10471 255 255 255
-0.91081 0.742387 9.83045 255 255 255
-0.91081 0.742387 9.83045 255 255 255
0.195388 0.821279 10.4039 255 255 255
-2.60726 0.898739 8.47703 255 255 255
-2.49416 0.925292 8.56473 255 255 255
-2.47926 0.816263 8.93977 255 255 255
-2.43538 0.816124 8.96813 255 255 255
-2.08796 0.815272 9.15911 255 255 255
3.46634 0.937727 12.1176 255 255 255
-2.28485 1.00154 9.12524 255 255 255
-2.23167 1.05993 9.15051 255 255 255
-1.66665 0.964255 9.35449 255 255 255
-1.67252 1.06963 9.44384 255 255 255
0.44321 1.13131 10.4754 255 255 255
1.23959 1.13568 10.9018 255 255 255
1.21211 1.16868 10.8643 255 255 255
1.87137 1.12479 11.2434 255 255 255
3.66698 1.28037 12.016 255 255 255
2.78693 1.31584 11.5854 255 255 255
-1.15497 1.33319 9.53927 255 255 255
-1.00808 1.30013 9.60417 255 255 255
-0.157795 1.37814 10.0555 255 255 255
2.03254 1.45161 11.2034 255 255 255
-0.915134 1.51341 9.68443 255 255 255
-0.815057 1.50779 9.7299 255 255 255
-0.769991 1.54238 9.77867 255 255 255
-0.546245 1.53149 9.88152 255 255 255
-0.497624 1.5694 9.95129 255 255 255
0.721193 1.64163 10.7093 255 255 255
-0.806498 1.61895 9.86451 255 255 255
-0.808676 1.61986 9.8722 255 255 255
-0.953977 -0.73758 10.3247 255 255 255
-0.954322 -0.737744 10.3255 255 255 255
-3.32071 -0.105644 8.12045 255 255 255
2.55549 -0.0705107 11.4235 255 255 255
-0.456666 0.0607225 9.96028 255 255 255
-0.456666 0.0607225 9.96028 255 255 255
3.24302 0.153198 11.8842 255 255 255
-2.4267 0.571968 8.93091 255 255 255
-2.14502 0.572344 9.08347 255 255 255
2.41615 0.666731 11.6747 255 255 255
2.41482 0.760643 11.6803 255 255 255
-2.50096 0.872771 8.5478 255 255 255
-1.92578 0.926308 9.20446 255 255 255
1.0209 0.892511 10.8499 255 255 255
-2.21394 0.979907 9.12083 255 255 255
-2.21355 0.979418 9.1197 255 255 255
-0.515703 1.09915 10.0235 255 255 255
3.39483 1.20002 11.9799 255 255 255
-0.860252 1.14425 9.7996 255 255 255
2.79033 1.39279 11.6334 255 255 255
1.97059 1.51633 11.1693 255 255 255
-0.610082 1.56555 9.8866 255 255 255
0.554368 1.63079 10.605 255 255 255
-0.348121 1.66565 10.1899 255 255 255
2.07698 -0.150115 11.1396 255 255 255
-0.0723623 0.105574 10.1649 255 255 255
-2.69826 0.282516 8.36474 255 255 255
-2.77469 0.463937 8.36375 255 255 255
-2.05984 0.423906 9.11891 255 255 255
3.25327 0.728198 11.9835 255 255 255
-2.64621 0.712701 8.40651 255 255 255
-0.677339 0.800931 9.94883 255 255 255
-2.53564 0.923857 8.54069 255 255 255
-2.53619 0.990275 8.51737 255 255 255
0.43218 1.10214 10.5685 255 255 255
0.829658 1.12685 10.6878 255 255 255
1.38796 1.14601 10.9954 255 255 255
1.62957 1.14331 11.1061 255 255 255
0.127407 1.23325 10.236 255 255 255
1.93888 1.34577 11.1463 255 255 255
-0.717357 1.46321 9.77099 255 255 255
-0.679978 1.6099 9.9217 255 255 255
0.488962 1.65669 10.6088 255 255 255
0.432664 -0.0505235 10.3618 255 255 255
-0.561912 0.0823376 9.90308 255 255 255
2.36072 0.224736 11.5347 255 255 255
0.975967 0.447888 10.7627 255 255 255
0.972377 0.448758 10.7522 255 255 255
2.61471 -0.160651 11.3944 255 255 255
-0.95061 0.528522 9.78431 255 255 255
3.46826 0.828042 12.3047 255 255 255
-2.04942 0.898342 9.1303 255 255 255
-1.19918 1.27721 9.52643 255 255 255
2.63559 1.34003 11.4985 255 255 255
-1.92331 0.712401 9.15339 255 255 255
-2.45681 0.788629 8.93075 255 255 255
-2.23896 0.803552 9.01227 255 255 255
-1.07571 1.16879 9.69173 255 255 255
-0.963502 1.27385 9.64836 255 255 255
2.22642 1.36408 11.3083 255 255 255
4.37074 1.63249 12.5942 255 255 255
-2.81199 0.490163 8.38979 255 255 255
-0.855958 -2.60363 10.0888 255 255 255
-0.790362 -2.62321 10.1203 255 255 255
-0.790855 -2.62183 10.1182 255 255 255
-0.709823 -2.50333 10.1521 255 255 255
-0.819227 -2.00073 10.1868 255 255 255
-1.14331 -1.40287 10.0799 255 255 255
1.46736 -0.424543 10.7987 255 255 255
0.824212 -0.343482 10.4709 255 255 255
0.773732 -0.293509 10.4374 255 255 255
1.29897 -0.371207 10.7004 255 255 255
1.41901 -0.358981 10.7722 255 255 255
1.41901 -0.358981 10.7722 255 255 255
1.95841 -0.318169 11.0553 255 255 255
2.93992 -0.276677 11.5615 255 255 255
3.3307 -0.272827 11.7706 255 255 255
3.3307 -0.272827 11.7706 255 255 255
-2.02423 -0.188661 9.0158 255 255 255
-0.739351 -0.171811 9.68358 255 255 255
-0.629322 -0.161348 9.74253 255 255 255
-0.59669 -0.089143 9.78471 255 255 255
-0.358261 -0.115853 9.88383 255 255 255
1.175 -0.2167 10.6699 255 255 255
2.05786 -0.157585 11.1126 255 255 255
1.99046 -0.107446 11.125 255 255 255
2.96113 -0.0854629 11.6275 255 255 255
4.06574 -0.106223 12.1774 255 255 255
-0.470655 0.00110919 9.9344 255 255 255
-0.491924 0.0437119 9.93347 255 255 255
-0.0517004 -0.00108108 10.1482 255 255 255
0.614086 -0.00215901 10.4921 255 255 255
0.823508 -0.0656521 10.549 255 255 255
0.824595 -0.0347823 10.5645 255 255 255
2.89381 -0.0248704 11.638 255 255 255
-2.71392 0.249515 8.35317 255 255 255
-1.64222 0.110161 9.24362 255 255 255
0.833592 0.144776 10.6345 255 255 255
0.907527 0.183701 10.6744 255 255 255
3.47118 0.148586 12.0101 255 255 255
2.57833 0.53572 11.5473 255 255 255
-0.9731 0.573125 9.76931 255 255 255
0.119698 0.570109 10.3396 255 255 255
0.119298 0.568995 10.3436 255 255 255
-0.380136 0.721392 10.0607 255 255 255
0.473327 0.824945 10.5534 255 255 255
0.0960496 0.884463 10.374 255 255 255
1.01861 0.936925 10.85 255 255 255
2.27336 0.946714 11.659 255 255 255
2.84821 1.00981 11.8147 255 255 255
-0.186661 1.01915 10.2421 255 255 255
-0.0340499 1.17385 10.1928 255 255 255
2.54874 1.22695 11.505 255 255 255
4.46805 1.33141 12.4859 255 255 255
0.0615764 1.3308 10.1645 255 255 255
0.0534756 1.37072 10.171 255 255 255
1.69469 1.4116 11.0324 255 255 255
2.60633 1.46559 11.4916 255 255 255
0.0257765 1.4636 10.1659 255 255 255
0.541428 1.53806 10.4618 255 255 255
1.12182 1.57052 10.8033 255 255 255
1.56149 1.55081 11.0019 255 255 255
1.5628 1.54849 11.0069 255 255 255
2.16927 1.62673 11.4306 255 255 255
3.9018 1.62365 12.3311 255 255 255
-0.472845 1.57428 9.97579 255 255 255
-0.297069 1.50492 10.0033 255 255 255
1.5554 1.64326 11.1289 255 255 255
1.5554 1.64326 11.1289 255 255 255
1.75369 1.62236 11.2081 255 255 255
-0.615701 1.64126 10.0232 255 255 255
-0.43556 1.63888 10.0896 255 255 255
-0.719819 -2.37605 10.1693 255 255 255
-1.40377 -0.890926 8.46819 255 255 255
-2.67098 -0.568866 8.38281 255 255 255
2.15706 -0.418214 11.1497 255 255 255
-0.798527 -0.18893 9.65253 255 255 255
-0.796782 -0.186747 9.65074 255 255 255
0.498932 -0.199635 10.315 255 255 255
1.10513 -0.148395 10.6447 255 255 255
1.73395 -0.100491 10.9911 255 255 255
2.24969 -0.0913632 11.2608 255 255 255
0.30167 -0.0125863 10.3019 255 255 255
0.658792 -0.0351777 10.4581 255 255 255
-1.44713 0.12658 9.46272 255 255 255
0.172403 0.126303 10.2837 255 255 255
-0.0799913 0.220304 10.177 255 255 255
0.110272 0.419652 10.3079 255 255 255
-0.232973 0.636608 10.1575 255 255 255
-0.23175 0.636256 10.1619 255 255 255
3.70226 0.722363 12.2006 255 255 255
1.34767 0.86042 11.0129 255 255 255
1.30101 0.93444 10.9895 255 255 255
3.70195 1.15257 12.1597 255 255 255
3.74373 1.28388 12.0594 255 255 255
2.91269 1.37192 11.671 255 255 255
3.42145 1.40375 11.9401 255 255 255
4.24548 1.342 12.3565 255 255 255
0.156831 1.28888 10.2227 255 255 255
2.19132 1.37967 11.2763 255 255 255
3.39247 1.57637 11.9763 255 255 255
0.547056 1.46737 10.4264 255 255 255
1.45506 1.57719 10.9971 255 255 255
2.39347 1.57268 11.4634 255 255 255
0.596787 1.6288 10.6181 255 255 255
-1.1132 -2.25955 9.95696 255 255 255
-0.759395 -2.41064 10.1641 255 255 255
-1.44724 -1.19063 9.99717 255 255 255
0.878866 -0.352512 10.4943 255 255 255
3.25708 -0.341512 11.7108 255 255 255
3.73052 -0.312259 11.9598 255 255 255
3.73123 -0.312939 11.9612 255 255 255
-1.29207 -0.106851 9.44238 255 255 255
-0.276619 -0.0943157 9.95545 255 255 255
0.305636 -0.114407 10.2549 255 255 255
0.368643 -0.121255 10.3009 255 255 255
1.21019 -0.111773 10.7238 255 255 255
1.21053 -0.112407 10.7235 255 255 255
2.42995 -0.0971374 11.343 255 255 255
3.96058 -0.173947 12.1057 255 255 255
3.95552 -0.104294 12.1219 255 255 255
-2.35042 -0.034679 8.91307 255 255 255
-2.07416 -0.00534864 9.06802 255 255 255
-1.15385 -0.0671607 9.5292 255 255 255
1.09347 -0.0686677 10.684 255 255 255
-1.36779 0.248298 9.51975 255 255 255
-0.721932 0.325592 9.85913 255 255 255
-0.722092 0.325233 9.85791 255 255 255
1.18464 0.458116 10.8643 255 255 255
1.30929 0.422996 10.9146 255 255 255
1.01503 0.646192 10.8036 255 255 255
2.40199 0.715401 11.661 255 255 255
0.208908 0.727073 10.3963 255 255 255
1.30971 0.914561 11.0029 255 255 255
1.82357 1.32039 11.0761 255 255 255
2.44731 1.56584 11.483 255 255 255
-1.0964 -2.41772 9.97332 255 255 255
-1.24055 -0.786096 8.63847 255 255 255
-1.39132 -1.20189 9.98878 255 255 255
-0.0561464 -0.0237018 10.1236 255 255 255
-0.606089 0.0516991 9.87169 255 255 255
2.72411 0.235108 11.6212 255 255 255
-0.720525 0.297801 9.87896 255 255 255
-2.20371 1.95323 5.83566 255 255 255
1.35203 0.598985 10.9831 255 255 255
2.31703 1.17258 11.4433 255 255 255
3.89421 -0.254017 12.0634 255 255 255
1.09489 0.0300075 10.7412 255 255 255
0.979344 0.527023 10.8018 255 255 255
1.36039 0.522324 10.9665 255 255 255
3.17088 1.0191 11.9437 255 255 255
-0.23719 1.48487 10.0408 255 255 255
1.27 1.5189 10.8198 255 255 255
3.54489 0.0850788 12.0299 255 255 255
1.21829 0.380495 10.8633 255 255 255
2.66409 0.373313 11.6122 255 255 255
-0.267301 1.33254 9.99011 255 255 255
0.184373 1.52365 10.2748 255 255 255
1.66901 0.902827 11.3304 255 255 255
1.35685 0.983527 11.0332 255 255 255
2.84608 0.976963 11.7975 255 255 255
1.22486 1.38905 10.799 255 255 255
1.81759 0.802943 11.3898 255 255 255
-1.21772 -2.72365 9.90178 255 255 255
-0.89862 -2.74615 9.97675 255 255 255
-0.820859 -2.73006 10.1014 255 255 255
-1.06087 -2.13661 9.98037 255 255 255
-0.742763 -2.03127 10.2058 255 255 255
-0.744754 -1.99052 10.2143 255 255 255
-1.25424 -1.45629 10.051 255 255 255
-2.89437 -0.369285 8.28137 255 255 255
-2.49528 -0.356416 8.49268 255 255 255
-0.603883 -0.380454 9.7289 255 255 255
-0.50732 -0.43056 9.77781 255 255 255
-0.399171 -0.426095 9.82952 255 255 255
-0.147541 -0.302561 9.97352 255 255 255
-0.147372 -0.30244 9.97472 255 255 255
1.66534 -0.373411 10.8931 255 255 255
-0.629852 -0.161516 9.74192 255 255 255
-0.213635 -0.252548 9.94695 255 255 255
1.6301 -0.177079 10.9137 255 255 255
3.85661 -0.374384 12.0318 255 255 255
0.0342341 -0.11326 10.0826 255 255 255
0.740047 -0.0591488 10.5062 255 255 255
0.741684 -0.0603906 10.5086 255 255 255
0.913893 -0.146764 10.5385 255 255 255
1.92789 -0.172437 11.065 255 255 255
2.96183 -0.0864615 11.6285 255 255 255
4.0188 -0.0904668 12.1912 255 255 255
-0.676162 0.0123197 9.81857 255 255 255
0.258749 0.111143 10.3314 255 255 255
0.832973 0.146867 10.6309 255 255 255
1.3064 -0.00824232 10.8218 255 255 255
1.6001 -0.018306 10.9705 255 255 255
1.41868 0.280855 10.9497 255 255 255
3.55277 0.203993 12.1006 255 255 255
3.55303 0.204403 12.1016 255 255 255
0.967447 0.419524 10.7459 255 255 255
0.420256 0.50847 10.4736 255 255 255
0.420345 0.508711 10.4729 255 255 255
1.8769 0.585354 11.2381 255 255 255
1.07087 0.763532 10.8503 255 255 255
1.32235 0.837735 10.9893 255 255 255
0.999754 0.979546 10.857 255 255 255
0.0928433 1.01301 10.3863 255 255 255
1.23719 1.13483 10.8984 255 255 255
4.17897 1.18576 12.4249 255 255 255
-0.207112 1.31739 10.0266 255 255 255
0.0627345 1.32821 10.1699 255 255 255
0.247363 1.27063 10.285 255 255 255
0.250735 1.26734 10.2938 255 255 255
0.96719 1.30888 10.6336 255 255 255
0.96719 1.30888 10.6336 255 255 255
1.08417 1.30734 10.6912 255 255 255
1.8678 1.42789 11.1219 255 255 255
1.8633 1.46713 11.1129 255 255 255
2.91092 1.4364 11.6672 255 255 255
2.8141 1.49192 11.615 255 255 255
-0.768552 1.49213 9.75626 255 255 255
0.258049 1.40665 10.2811 255 255 255
0.25842 1.40543 10.2849 255 255 255
0.9874 1.43495 10.6637 255 255 255
1.60186 1.57601 11.048 255 255 255
1.68325 1.56625 11.0737 255 255 255
2.04093 1.59452 11.3127 255 255 255
3.73284 1.59531 12.19 255 255 255
-0.79985 1.58153 9.81239 255 255 255
-0.781431 1.58625 9.83984 255 255 255
-0.723943 1.59227 9.88498 255 255 255
-0.724249 1.59115 9.88743 255 255 255
-0.667274 1.59578 9.91453 255 255 255
-0.627241 1.60428 9.94092 255 255 255
1.27633 1.5896 10.906 255 255 255
2.00396 1.62674 11.3371 255 255 255
2.36175 1.67339 11.5934 255 255 255
3.87251 1.67075 12.408 255 255 255
4.27136 1.63598 12.8763 255 255 255
-0.916818 1.66271 9.88387 255 255 255
-0.71735 1.64676 9.96805 255 255 255
-0.507541 1.67302 10.1076 255 255 255
1.04537 1.67474 10.9151 255 255 255
-0.68352 -2.94231 10.0862 255 255 255
-1.28054 -2.5999 9.84209 255 255 255
2.33666 -0.412843 11.2392 255 255 255
-0.787722 -0.136311 9.67235 255 255 255
-0.280508 -0.258326 9.90432 255 255 255
-0.28061 -0.210436 9.91476 255 255 255
-0.858772 -0.106563 9.66976 255 255 255
1.25733 -0.0382388 10.7704 255 255 255
2.18632 -0.128975 11.1969 255 255 255
2.23081 -0.0624114 11.2826 255 255 255
2.59292 -0.0329615 11.4598 255 255 255
2.9052 -0.0934005 11.5999 255 255 255
3.76382 -0.0708671 12.1 255 255 255
0.775796 0.149913 10.6064 255 255 255
1.26163 0.0183518 10.8205 255 255 255
0.773528 0.21288 10.6003 255 255 255
1.15908 0.243597 10.8099 255 255 255
1.15837 0.244708 10.8076 255 255 255
0.0764873 0.41723 10.2819 255 255 255
1.45999 0.491558 10.9863 255 255 255
2.57938 0.377233 11.6066 255 255 255
0.217176 0.625247 10.3867 255 255 255
0.0424408 0.717985 10.317 255 255 255
2.81624 0.955811 11.792 255 255 255
3.23119 0.948746 11.9982 255 255 255
3.64388 1.31818 11.9995 255 255 255
4.19157 1.25068 12.3256 255 255 255
0.962307 1.41902 10.6502 255 255 255
0.961591 1.42029 10.6473 255 255 255
2.07392 1.46077 11.2247 255 255 255
3.43649 1.45007 11.9553 255 255 255
-0.419086 1.47592 9.93613 255 255 255
0.645584 1.49727 10.4948 255 255 255
3.56597 1.59465 12.0982 255 255 255
3.76339 1.56586 12.1779 255 255 255
3.76718 1.56422 12.1821 255 255 255
-0.836614 1.59875 9.83184 255 255 255
-0.662693 1.56968 9.89153 255 255 255
-0.662645 1.5714 9.8891 255 255 255
0.407769 1.57123 10.4328 255 255 255
1.26359 1.67315 11.0201 255 255 255
2.47871 1.67248 11.6595 255 255 255
-0.687743 1.62474 9.95496 255 255 255
-0.683253 1.66643 10.0151 255 255 255
-0.643583 1.64472 9.9976 255 255 255
-0.643458 1.64247 10.0022 255 255 255
-0.431511 1.67006 10.1446 255 255 255
-0.260704 1.66484 10.2737 255 255 255
-0.210546 1.67425 10.2526 255 255 255
0.746904 1.66915 10.7573 255 255 255
0.0317445 1.26199 12.2321 255 255 255
0.154879 1.24244 12.2407 255 255 255
0.231295 1.24404 12.2822 255 255 255
0.454656 1.24215 12.3901 255 255 255
0.454656 1.24215 12.3901 255 255 255
-1.03417 -2.61507 9.99312 255 255 255
-1.37943 -2.34918 9.87373 255 255 255
-1.81274 -1.18374 9.81236 255 255 255
-0.919836 -0.232653 9.58212 255 255 255
-0.865429 -0.0670801 9.68096 255 255 255
-0.429077 -0.0223322 9.93246 255 255 255
-0.125022 -0.0362457 10.0947 255 255 255
0.0264466 -0.0367134 10.1766 255 255 255
0.956696 -0.0296698 10.644 255 255 255
1.84959 -0.0642605 11.0776 255 255 255
2.45703 -0.0580878 11.3892 255 255 255
2.55366 -0.0692074 11.433 255 255 255
3.68374 -0.0675115 12.0529 255 255 255
3.77096 -0.0955861 12.0582 255 255 255
1.67923 0.012652 11.0352 255 255 255
0.234305 0.579687 10.3841 255 255 255
1.68601 0.55284 11.1296 255 255 255
1.80632 1.2582 11.1085 255 255 255
-0.247574 1.20267 10.0688 255 255 255
2.4186 1.47502 11.4047 255 255 255
-0.444509 1.51264 9.93142 255 255 255
1.58628 1.48344 10.968 255 255 255
2.64546 1.55591 11.5616 255 255 255
2.63701 1.56126 11.545 255 255 255
4.4393 1.5979 12.6875 255 255 255
2.04338 1.66905 11.4595 255 255 255
0.47395 1.67764 10.6342 255 255 255
0.711383 1.65645 10.7384 255 255 255
-1.14903 1.25609 11.6442 255 255 255
-0.822943 1.23859 11.7488 255 255 255
-0.822943 1.23859 11.7488 255 255 255
-0.558855 1.23851 11.8739 255 255 255
-0.558855 1.23851 11.8739 255 255 255
-0.442599 1.2459 11.9329 255 255 255
-0.442599 1.2459 11.9329 255 255 255
-1.08384 -2.57632 9.97288 255 255 255
-0.761631 -0.106006 9.7097 255 255 255
-0.257126 0.0181241 10.0487 255 255 255
-0.429363 0.231582 9.98338 255 255 255
-0.42976 0.231376 9.9883 255 255 255
2.72386 0.233266 11.6206 255 255 255
0.675663 1.19208 10.5684 255 255 255
4.0514 1.26586 12.2737 255 255 255
3.96262 1.33347 12.2148 255 255 255
2.9035 1.32821 11.6494 255 255 255
0.793486 1.40273 10.6029 255 255 255
0.550952 1.63056 10.6192 255 255 255
1.14067 1.61283 10.8793 255 255 255
1.32186 1.66537 11.0673 255 255 255
-0.423249 -2.80975 10.2506 255 255 255
3.4301 -0.00650591 11.9418 255 255 255
2.93634 0.426169 11.7225 255 255 255
0.150315 0.595527 10.3413 255 255 255
1.21611 1.6652 11.0061 255 255 255
1.58412 1.61409 11.1001 255 255 255
-1.0686 -2.70982 9.96214 255 255 255
0.960465 0.357217 10.7293 255 255 255
-0.417333 1.59094 10.0386 255 255 255
2.6322 1.6414 11.7259 255 255 255
-0.37171 1.43002 9.96691 255 255 255
0.117484 1.40868 10.2324 255 255 255
-0.652724 -3.45257 10.0501 255 255 255
-0.77734 -1.94071 10.2212 255 255 255
-1.07296 -1.48051 10.1258 255 255 255
-1.09597 -1.41388 10.1255 255 255 255
-1.06792 -1.32284 10.1558 255 255 255
-1.06792 -1.32284 10.1558 255 255 255
-1.05417 -1.28937 10.1684 255 255 255
-1.05787 -1.24955 10.1758 255 255 255
-0.825539 -1.16867 10.3022 255 255 255
0.0757952 -0.367218 10.078 255 255 255
0.470175 -0.34375 10.281 255 255 255
1.0705 -0.220506 10.6194 255 255 255
1.1809 -0.25288 10.6634 255 255 255
0.239442 -0.0995613 10.2244 255 255 255
0.399332 0.145843 10.3987 255 255 255
0.506631 0.0608726 10.453 255 255 255
0.857174 0.0131777 10.5974 255 255 255
-0.0780871 0.176611 10.1678 255 255 255
1.66077 0.189562 11.1723 255 255 255
1.27365 0.35516 10.8793 255 255 255
1.41872 0.403398 10.961 255 255 255
1.494 0.357021 10.998 255 255 255
-0.202172 0.6394 10.1746 255 255 255
-0.20134 0.637914 10.1776 255 255 255
0.536296 0.553148 10.5486 255 255 255
0.629619 0.586724 10.5963 255 255 255
2.84858 0.586342 11.7184 255 255 255
3.16901 0.398011 11.8753 255 255 255
2.899 0.692533 11.783 255 255 255
3.36369 0.588861 11.985 255 255 255
3.13989 0.725033 11.9195 255 255 255
4.12368 0.55926 12.4721 255 255 255
1.14826 0.800285 10.9004 255 255 255
1.20158 1.00168 10.9536 255 255 255
3.70195 1.15257 12.1597 255 255 255
-0.756562 1.33568 9.74453 255 255 255
1.00723 1.36269 10.6627 255 255 255
1.30372 1.30486 10.8074 255 255 255
3.2988 1.36374 11.8821 255 255 255
4.29059 1.41818 12.3841 255 255 255
-0.919003 1.50891 9.68653 255 255 255
-0.124167 1.54847 10.0895 255 255 255
2.90928 1.43941 11.658 255 255 255
3.30596 1.55783 11.9467 255 255 255
-1.15778 1.56834 9.62403 255 255 255
-0.627227 1.60268 9.94458 255 255 255
1.82886 1.60895 11.222 255 255 255
1.82929 1.6084 11.2231 255 255 255
2.55769 1.67092 11.6759 255 255 255
-0.338452 1.67582 10.2881 255 255 255
1.57231 1.68213 11.1747 255 255 255
2.50245 1.67051 11.76 255 255 255
3.51126 1.69339 12.2048 255 255 255
3.57066 1.69061 12.234 255 255 255
1.89926 1.20418 12.9093 255 255 255
-0.793508 1.25518 11.4522 255 255 255
-0.126939 1.21584 12.065 255 255 255
0.715575 1.25371 12.2353 255 255 255
1.83463 1.25357 13.1967 255 255 255
2.93818 1.25841 13.7182 255 255 255
-0.695714 -3.3256 10.0593 255 255 255
-0.70222 -3.22721 10.0651 255 255 255
-0.673972 -3.1743 10.0838 255 255 255
-0.673972 -3.1743 10.0838 255 255 255
-0.700388 -2.70848 10.1534 255 255 255
-0.719516 -2.37619 10.1696 255 255 255
-0.747293 -1.93083 10.2243 255 255 255
-0.753132 -1.85012 10.2314 255 255 255
-0.722533 -1.73932 10.2126 255 255 255
-0.771863 -1.53012 10.2646 255 255 255
-1.08265 -1.38211 10.1446 255 255 255
-0.989014 -1.38085 10.1949 255 255 255
-0.899952 -1.4774 10.2245 255 255 255
-0.90103 -1.41011 10.2209 255 255 255
-0.988677 -1.28866 10.1983 255 255 255
-0.988354 -1.28628 10.1944 255 255 255
-1.24315 -0.367386 9.38814 255 255 255
-0.839318 -0.243999 9.63206 255 255 255
-0.568175 -0.305014 9.7548 255 255 255
-0.248982 -0.386058 9.90867 255 255 255
0.0475564 -0.363353 10.058 255 255 255
2.59108 -0.283122 11.3949 255 255 255
2.68024 -0.280687 11.429 255 255 255
3.94776 -0.335389 12.0773 255 255 255
-0.472997 0.0728802 9.94244 255 255 255
0.200305 0.0118987 10.2749 255 255 255
0.51148 0.00717914 10.4415 255 255 255
0.519147 0.106885 10.4607 255 255 255
2.20237 -0.0869668 11.2334 255 255 255
2.4591 -0.0180283 11.4196 255 255 255
3.12914 -0.0610088 11.7293 255 255 255
1.91186 0.58846 11.2564 255 255 255
1.91201 0.590363 11.2539 255 255 255
2.86912 0.501303 11.6956 255 255 255
3.24317 0.417386 11.9235 255 255 255
3.47813 0.730857 12.1124 255 255 255
3.47813 0.730857 12.1124 255 255 255
2.30053 0.758449 11.6191 255 255 255
2.85997 0.791077 11.7492 255 255 255
-0.342923 1.12255 10.092 255 255 255
0.827485 1.11656 10.7026 255 255 255
0.827631 1.11972 10.6947 255 255 255
-0.727882 1.34302 9.7583 255 255 255
-0.522053 1.36342 9.86732 255 255 255
0.734145 1.31803 10.5292 255 255 255
2.83551 1.34026 11.6147 255 255 255
4.01242 1.3735 12.2232 255 255 255
4.47597 1.23788 12.496 255 255 255
-0.942035 1.5009 9.6737 255 255 255
-0.865754 1.50037 9.71383 255 255 255
-0.864053 1.53196 9.71717 255 255 255
-0.863785 1.53201 9.71709 255 255 255
1.38248 1.41558 10.8595 255 255 255
1.3168 1.51017 10.8511 255 255 255
1.72496 1.48274 11.055 255 255 255
2.19926 1.51595 11.2972 255 255 255
3.39245 1.57892 11.9722 255 255 255
-1.05952 1.54724 9.63877 255 255 255
-0.923866 1.5549 9.70896 255 255 255
-0.934694 1.57425 9.7449 255 255 255
-0.933899 1.57243 9.7479 255 255 255
0.303004 1.57522 10.3552 255 255 255
0.304178 1.57316 10.3598 255 255 255
3.65389 1.62646 12.1968 255 255 255
4.3056 1.65033 12.6068 255 255 255
-1.05386 1.64557 9.79378 255 255 255
-1.05386 1.64557 9.79378 255 255 255
-0.0272899 1.6837 10.4272 255 255 255
0.931819 1.66974 10.9909 255 255 255
-0.579827 1.22585 11.8092 255 255 255
-0.180383 1.22163 12.0056 255 255 255
0.107985 1.23992 12.2094 255 255 255
0.107985 1.23992 12.2094 255 255 255
0.154754 1.24277 12.2395 255 255 255
0.368799 1.24265 12.3468 255 255 255
0.36882 1.24214 12.3478 255 255 255
0.887139 1.23675 12.6314 255 255 255
2.17574 1.26027 13.3677 255 255 255
3.23559 1.27087 13.8365 255 255 255
-1.4808 1.2128 11.3848 255 255 255
-1.51082 1.24213 11.3779 255 255 255
-1.17645 1.2407 11.5465 255 255 255
-1.1243 1.23853 11.5832 255 255 255
-1.1243 1.23853 11.5832 255 255 255
-1.01743 1.23414 11.6449 255 255 255
-0.861753 1.24516 11.7113 255 255 255
-0.773557 1.24167 11.7509 255 255 255
-0.33847 1.24063 11.9904 255 255 255
1.52978 1.25044 13.0951 255 255 255
-3.22934 1.90082 11.4396 255 255 255
-3.14281 1.82842 11.4421 255 255 255
-2.78526 2.00241 11.6802 255 255 255
-0.816123 -3.30979 9.9939 255 255 255
-0.989284 -1.72926 10.0507 255 255 255
-0.684457 -1.72687 10.2096 255 255 255
-0.813373 -1.54869 10.2676 255 255 255
-1.00323 -1.42305 10.1781 255 255 255
-1.07737 -1.06405 10.141 255 255 255
0.616702 -0.114541 10.4201 255 255 255
0.901727 -0.0721152 10.5908 255 255 255
0.901921 -0.0722391 10.5916 255 255 255
1.19825 -0.0643217 10.7396 255 255 255
1.54715 -0.166503 10.8656 255 255 255
1.26247 -0.0297929 10.7963 255 255 255
2.68051 -0.057333 11.5079 255 255 255
3.21917 0.0643279 11.8462 255 255 255
3.5568 0.0705499 12.0298 255 255 255
0.450824 0.421348 10.4767 255 255 255
1.14561 0.334464 10.8245 255 255 255
0.0569756 0.606184 10.304 255 255 255
1.30041 0.642733 10.9517 255 255 255
-0.004137 0.879226 10.3138 255 255 255
0.672585 0.821815 10.6636 255 255 255
-0.6386 1.33601 9.80839 255 255 255
0.120583 1.39658 10.2075 255 255 255
0.248381 1.33887 10.257 255 255 255
0.31365 1.2778 10.316 255 255 255
0.412206 1.28965 10.3614 255 255 255
1.15901 1.52231 10.764 255 255 255
3.83817 1.48094 12.1466 255 255 255
4.04206 1.50951 12.2592 255 255 255
4.46967 1.40867 12.5115 255 255 255
-0.937185 1.60804 9.81595 255 255 255
-1.11813 1.666 9.80209 255 255 255
0.669902 1.67738 10.7558 255 255 255
0.669902 1.67738 10.7558 255 255 255
0.703648 1.6646 10.8656 255 255 255
2.10044 1.6724 11.5987 255 255 255
-2.0797 2.30974 8.23269 255 255 255
2.70897 1.23959 13.2926 255 255 255
2.98207 1.23373 13.5962 255 255 255
-1.53975 1.24876 11.4711 255 255 255
-1.45848 1.23909 11.4155 255 255 255
-1.39766 1.23723 11.444 255 255 255
-1.30258 1.23695 11.4949 255 255 255
-1.253 1.24011 11.5175 255 255 255
-0.968238 1.23972 11.6619 255 255 255
-0.609764 1.24147 11.8479 255 255 255
-0.609764 1.24147 11.8479 255 255 255
-0.287839 1.23747 12.0191 255 255 255
-3.71575 1.64221 11.1871 255 255 255
-2.9595 1.74017 11.5478 255 255 255
-3.63355 1.86804 11.2202 255 255 255
-0.865622 -1.85266 10.1743 255 255 255
-1.17949 -1.10333 10.0833 255 255 255
0.0318711 -0.107898 10.1135 255 255 255
0.0258571 -0.0337356 10.1731 255 255 255
0.695808 -0.060404 10.4833 255 255 255
2.39659 -0.0610109 11.3637 255 255 255
3.49895 0.555409 11.9819 255 255 255
2.47768 0.625564 11.6024 255 255 255
2.49623 1.03788 11.6267 255 255 255
0.897791 1.35837 10.6088 255 255 255
2.87976 1.27665 11.6543 255 255 255
2.87366 1.2737 11.651 255 255 255
0.438426 1.46915 10.3806 255 255 255
0.497271 1.46176 10.4139 255 255 255
2.67602 1.46526 11.552 255 255 255
2.78772 1.46924 11.6066 255 255 255
4.19167 1.65173 12.5878 255 255 255
1.08902 1.2467 12.5944 255 255 255
1.1356 1.23658 12.7557 255 255 255
1.87819 1.24189 13.152 255 255 255
-1.35826 1.23318 11.4791 255 255 255
-1.35826 1.23318 11.4791 255 255 255
-0.911026 1.24084 11.6958 255 255 255
-0.911026 1.24084 11.6958 255 255 255
-0.877602 1.25264 11.8086 255 255 255
-0.696508 1.24702 11.9219 255 255 255
3.21645 -0.401633 11.6988 255 255 255
2.80289 0.942566 11.7914 255 255 255
2.80116 0.945707 11.7837 255 255 255
2.86347 1.01667 11.8063 255 255 255
2.41205 1.31838 11.384 255 255 255
-1.00053 1.50759 9.6544 255 255 255
0.841763 1.41314 10.587 255 255 255
1.14106 1.68038 11.0593 255 255 255
2.08801 1.29379 12.7006 255 255 255
0.47771 1.24347 12.2474 255 255 255
-0.276236 0.0498217 10.0261 255 255 255
3.17988 0.0389708 11.8234 255 255 255
2.296 0.71252 11.6016 255 255 255
3.71434 0.813916 12.2818 255 255 255
2.27533 0.902357 11.6409 255 255 255
-0.557252 1.44422 9.86316 255 255 255
3.01038 1.62581 11.9491 255 255 255
1.88551 1.50857 11.158 255 255 255
2.43507 1.64903 11.645 255 255 255
-0.540226 1.63118 10.0432 255 255 255
-0.0682863 1.29929 10.1001 255 255 255
-0.596379 1.4212 9.83496 255 255 255
1.88582 1.59909 11.2328 255 255 255
-0.593148 -1.64003 10.3193 255 255 255
-0.593254 -1.64015 10.3195 255 255 255
0.668372 0.998621 10.6646 255 255 255
-0.753074 -2.35534 10.1734 255 255 255
-0.64511 -1.71744 10.2369 255 255 255
-0.647139 -1.71378 10.2313 255 255 255
0.191664 -0.427811 10.1365 255 255 255
0.422019 -0.317441 10.2656 255 255 255
0.992634 -0.383845 10.5531 255 255 255
1.60491 -0.264108 10.8911 255 255 255
0.128466 0.0320623 10.2496 255 255 255
0.412601 -0.102589 10.31 255 255 255
0.660758 -0.0964445 10.441 255 255 255
0.830498 -0.0159096 10.5841 255 255 255
1.30795 -0.0947686 10.7756 255 255 255
2.09539 -0.103096 11.1864 255 255 255
1.14386 0.134583 10.7771 255 255 255
2.25079 -0.0174684 11.3129 255 255 255
0.226439 0.306049 10.3351 255 255 255
1.37755 0.238538 10.9253 255 255 255
0.630253 0.490472 10.5873 255 255 255
0.929486 0.477349 10.7468 255 255 255
2.77529 0.321912 11.6637 255 255 255
2.8286 0.338048 11.688 255 255 255
-0.0690339 0.711687 10.2422 255 255 255
0.340194 0.615323 10.4555 255 255 255
0.328488 0.696088 10.4641 255 255 255
0.688126 0.537703 10.6172 255 255 255
1.33882 0.525804 10.9461 255 255 255
2.83847 0.633792 11.7409 255 255 255
-0.598387 0.832995 9.98894 255 255 255
-0.4748 0.862546 10.0624 255 255 255
0.196095 0.820176 10.4064 255 255 255
0.812903 0.807106 10.7211 255 255 255
0.814144 0.80323 10.7268 255 255 255
1.15734 0.738399 10.8976 255 255 255
2.62633 0.804121 11.6976 255 255 255
3.56553 0.749412 12.1576 255 255 255
-0.552644 0.933158 10.0323 255 255 255
2.90894 0.890057 11.8171 255 255 255
3.1513 0.951488 11.9453 255 255 255
0.879847 1.31882 10.5928 255 255 255
1.14869 1.33749 10.736 255 255 255
1.66585 1.33827 11.0056 255 255 255
-1.05054 1.47047 9.61387 255 255 255
-0.434645 1.44998 9.92209 255 255 255
1.17943 1.48132 10.7672 255 255 255
1.86472 1.466 11.1158 255 255 255
2.62681 1.45566 11.5139 255 255 255
2.70008 1.49793 11.5536 255 255 255
3.75215 1.53701 12.0951 255 255 255
-1.26815 1.5049 9.50682 255 255 255
-1.17212 1.51103 9.55586 255 255 255
0.307819 1.53161 10.3275 255 255 255
0.716322 1.55892 10.5841 255 255 255
0.692438 1.58608 10.5894 255 255 255
1.68341 1.6079 11.1436 255 255 255
1.68341 1.6079 11.1436 255 255 255
2.51033 1.62127 11.5838 255 255 255
-0.853816 1.6164 9.86262 255 255 255
0.711405 1.68032 10.7584 255 255 255
3.6577 1.68788 12.2799 255 255 255
-1.12285 1.66457 9.95736 255 255 255
1.33008 1.66012 11.2375 255 255 255
0.409896 1.28711 11.7992 255 255 255
0.710614 1.27152 12.0026 255 255 255
2.96927 1.26071 13.4396 255 255 255
-1.04184 1.27298 11.1873 255 255 255
-0.746102 1.28901 11.2331 255 255 255
-0.359528 1.25964 11.7254 255 255 255
0.0217654 1.25216 11.9662 255 255 255
0.452949 1.22591 12.3449 255 255 255
-0.653306 1.21645 11.7923 255 255 255
-1.7453 1.25172 11.3001 255 255 255
-0.118031 -0.287737 9.98562 255 255 255
0.329708 -0.225488 10.2282 255 255 255
0.487322 -0.129811 10.3269 255 255 255
0.755009 -0.217102 10.4522 255 255 255
2.24663 -0.343656 11.1924 255 255 255
1.06569 0.452347 10.7993 255 255 255
1.06464 0.452681 10.7985 255 255 255
3.72387 0.394585 12.1618 255 255 255
0.537524 0.569206 10.5445 255 255 255
0.537269 0.568686 10.543 255 255 255
-0.437999 0.860538 10.0857 255 255 255
3.14005 0.665699 11.8979 255 255 255
-0.649995 1.01212 9.99305 255 255 255
0.901716 0.909776 10.7829 255 255 255
0.00563249 1.33294 10.1399 255 255 255
1.47775 1.29158 10.9016 255 255 255
1.70863 1.32051 11.0251 255 255 255
2.72067 1.33735 11.5568 255 255 255
3.60738 1.33728 11.9946 255 255 255
3.88737 1.21997 12.2042 255 255 255
-1.14965 1.39112 9.54298 255 255 255
-0.493376 1.46171 9.90129 255 255 255
-0.179417 1.34979 10.0436 255 255 255
3.74512 1.39636 12.0856 255 255 255
3.89242 1.45658 12.1793 255 255 255
0.892135 1.6257 10.7729 255 255 255
3.43263 1.66863 12.3126 255 255 255
-0.959585 1.66288 9.8698 255 255 255
-0.445383 1.28521 11.3644 255 255 255
-0.371119 1.28117 11.3809 255 255 255
0.0146102 1.29228 11.5412 255 255 255
0.153908 1.27557 11.8079 255 255 255
2.25176 1.29654 13.0111 255 255 255
-1.50767 1.22711 11.1756 255 255 255
0.151091 1.25081 12.3041 255 255 255
0.582696 1.25134 12.5354 255 255 255
1.04356 1.24609 12.7086 255 255 255
1.41856 -0.415696 10.7672 255 255 255
2.29103 -0.406266 11.2154 255 255 255
0.710008 -0.0340376 10.5335 255 255 255
0.948186 -0.0611106 10.608 255 255 255
1.77408 -0.0662884 11.0402 255 255 255
1.77252 -0.0653883 11.0377 255 255 255
4.00396 -0.288909 12.113 255 255 255
3.56725 -0.0705588 11.998 255 255 255
3.03606 0.258192 11.7693 255 255 255
0.738523 0.352937 10.6191 255 255 255
0.216121 0.620907 10.3928 255 255 255
1.53641 0.564578 10.9884 255 255 255
-0.34243 0.920414 10.1399 255 255 255
0.618298 1.27351 10.4663 255 255 255
2.80003 1.33457 11.5981 255 255 255
4.49498 1.28531 12.4743 255 255 255
-0.317687 1.48328 9.99513 255 255 255
4.27684 1.4722 12.3813 255 255 255
0.906683 1.5513 10.6626 255 255 255
0.905881 1.55211 10.6591 255 255 255
0.727295 1.6249 10.6971 255 255 255
3.57015 1.66131 12.2135 255 255 255
-0.94191 1.67652 9.94121 255 255 255
-1.06971 1.28872 10.9907 255 255 255
0.632518 1.30287 11.8015 255 255 255
-1.29869 1.24685 11.2072 255 255 255
-0.0850221 1.26865 11.69 255 255 255
0.478093 1.22409 12.2381 255 255 255
-1.65541 1.23364 11.3074 255 255 255
0.0546242 1.2424 12.1819 255 255 255
-1.0851 1.22193 11.8989 255 255 255
-2.88914 1.35023 11.5322 255 255 255
-2.88914 1.35023 11.5322 255 255 255
0.71127 -0.407386 10.4051 255 255 255
1.48443 -0.0131095 10.9139 255 255 255
3.32576 -0.000278559 11.8883 255 255 255
0.579393 0.528399 10.5774 255 255 255
3.7653 0.451841 12.1632 255 255 255
0.453109 0.743566 10.5333 255 255 255
-0.329055 1.31603 11.2473 255 255 255
2.3114 1.30473 12.8881 255 255 255
0.0116886 1.24173 12.1625 255 255 255
-0.431502 0.909448 10.0961 255 255 255
2.85995 1.02275 11.7968 255 255 255
-0.631074 1.29711 9.82685 255 255 255
2.54015 1.27494 11.4792 255 255 255
-0.962895 1.37097 9.64322 255 255 255
2.89398 1.39616 11.655 255 255 255
3.90513 1.50403 12.2108 255 255 255
0.903181 1.64846 10.8052 255 255 255
4.19042 1.65248 12.5885 255 255 255
-1.07623 1.24366 11.6172 255 255 255
3.09105 0.405271 11.8303 255 255 255
3.85913 0.445713 12.2068 255 255 255
2.24959 1.4887 11.3282 255 255 255
3.84341 1.57359 12.2269 255 255 255
4.49026 1.30274 12.5385 255 255 255
3.06091 0.644074 11.8696 255 255 255
-0.80004 1.53147 9.76405 255 255 255
3.87344 1.31286 12.2067 255 255 255
-0.637545 -0.750277 6.54783 255 255 255
-0.937323 -0.696665 10.3563 255 255 255
-0.629858 -0.371679 9.73215 255 255 255
0.501359 -0.322016 10.2943 255 255 255
2.17597 -0.30957 11.1732 255 255 255
-2.08276 -0.142425 8.99568 255 255 255
-0.401797 -0.109442 9.8986 255 255 255
-2.20649 -0.00726581 8.99606 255 255 255
-0.470379 -0.0251146 9.90926 255 255 255
-0.47078 -0.0244802 9.91035 255 255 255
-0.269861 0.0805433 10.0482 255 255 255
0.757431 0.0386335 10.5754 255 255 255
3.27595 0.103963 11.8871 255 255 255
-1.61621 0.0797267 9.36534 255 255 255
-1.1928 0.101692 9.58719 255 255 255
-1.1926 0.102072 9.58634 255 255 255
3.73813 0.337348 12.1794 255 255 255
-2.52029 0.308429 8.4563 255 255 255
0.834423 0.358987 10.6663 255 255 255
0.834578 0.359037 10.6667 255 255 255
2.88162 0.453887 11.7378 255 255 255
-1.42612 0.460166 9.52235 255 255 255
2.47667 0.627181 11.5749 255 255 255
4.14035 0.60654 12.4277 255 255 255
2.91974 0.834865 11.8129 255 255 255
-2.20609 0.689698 9.01841 255 255 255
0.691491 0.945038 10.6714 255 255 255
1.52125 0.920141 11.1126 255 255 255
-2.55748 0.953931 8.54069 255 255 255
-2.21839 0.851433 9.04864 255 255 255
0.767606 1.1221 10.6639 255 255 255
1.61208 1.05358 11.1796 255 255 255
1.9535 1.09006 11.328 255 255 255
2.58836 1.08662 11.6514 255 255 255
3.9641 1.13092 12.3167 255 255 255
-2.63981 1.0847 8.53275 255 255 255
-2.60674 1.10224 8.54596 255 255 255
-2.56291 1.00868 8.56749 255 255 255
-2.55756 1.08498 8.58444 255 255 255
-2.55403 1.00252 8.99085 255 255 255
-2.07807 1.00155 9.23071 255 255 255
-1.90562 1.14471 9.26248 255 255 255
-0.92819 1.08363 9.842 255 255 255
1.69922 1.21724 11.0714 255 255 255
1.70049 1.21733 11.0731 255 255 255
1.74773 1.24829 11.0635 255 255 255
1.86834 1.25201 11.1184 255 255 255
2.59574 1.29313 11.4749 255 255 255
3.54956 1.4073 11.9832 255 255 255
4.29306 1.3607 12.3906 255 255 255
-2.48203 1.24384 8.8576 255 255 255
-2.33807 1.20839 8.98614 255 255 255
-2.23891 1.25349 8.99083 255 255 255
-1.97805 1.25065 9.12099 255 255 255
-1.21933 1.26959 9.50768 255 255 255
-0.792297 1.23385 9.76536 255 255 255
-0.459562 1.29044 9.89574 255 255 255
0.348995 1.37907 10.3203 255 255 255
1.73887 1.52047 11.0608 255 255 255
2.41554 1.51062 11.4008 255 255 255
3.03198 1.4747 11.7253 255 255 255
-2.32754 1.30048 8.9297 255 255 255
-2.27408 1.3388 8.96853 255 255 255
-2.02406 1.31328 9.08093 255 255 255
-1.63001 1.44232 9.31237 255 255 255
-0.0846044 1.51926 10.1146 255 255 255
0.423534 1.4757 10.372 255 255 255
-1.40631 1.56098 9.47609 255 255 255
2.75721 -0.331877 11.4612 255 255 255
-2.48645 -0.137698 8.4576 255 255 255
-2.35377 -0.182756 8.62853 255 255 255
0.487345 -0.138347 10.3327 255 255 255
0.372499 -0.117114 10.2636 255 255 255
1.8499 -0.0647596 11.0821 255 255 255
2.12869 -0.0343091 11.2413 255 255 255
-1.03858 -0.0284811 9.61051 255 255 255
0.519518 0.108168 10.4625 255 255 255
1.55475 -0.0306603 10.9324 255 255 255
3.31864 0.160437 11.9306 255 255 255
-2.05756 0.111381 9.10027 255 255 255
-1.34293 0.156677 9.52081 255 255 255
2.43553 0.312702 11.5954 255 255 255
-2.40788 0.255885 8.90919 255 255 255
-2.41016 0.310791 8.92087 255 255 255
-2.36656 0.310858 8.94168 255 255 255
-2.10039 0.310412 9.08072 255 255 255
-1.61886 0.288796 9.25711 255 255 255
-1.01882 0.265487 9.70167 255 255 255
1.55545 0.439638 11.036 255 255 255
2.81549 0.459001 11.7026 255 255 255
-2.48452 0.515844 8.47461 255 255 255
-0.385297 0.581106 10.0712 255 255 255
-0.274833 0.514402 10.1634 255 255 255
-0.275349 0.513891 10.1671 255 255 255
0.570405 0.599574 10.5674 255 255 255
2.76409 0.621807 11.7157 255 255 255
-1.08512 0.636085 9.71898 255 255 255
2.21317 0.768129 11.6172 255 255 255
-2.38717 0.759674 8.98112 255 255 255
-2.34805 0.760048 9.00923 255 255 255
-2.12578 0.761416 9.12852 255 255 255
-2.0817 0.760775 9.15144 255 255 255
-1.25649 0.818584 9.65485 255 255 255
1.33281 0.965075 11.0214 255 255 255
2.19676 0.951655 11.638 255 255 255
3.95075 1.03211 12.6278 255 255 255
-2.49761 0.959638 8.95809 255 255 255
-0.598268 1.04498 10.0252 255 255 255
-0.136962 0.92243 10.2432 255 255 255
-0.137798 0.921943 10.2536 255 255 255
-0.121784 1.07805 10.2558 255 255 255
2.01866 1.06111 11.3901 255 255 255
2.53966 1.2024 11.5325 255 255 255
3.32448 1.12508 11.9891 255 255 255
-2.0525 1.04155 9.25801 255 255 255
-0.887594 1.07322 9.88001 255 255 255
-0.217291 1.11716 10.1651 255 255 255
0.443431 1.13305 10.489 255 255 255
1.53983 1.20101 11.0009 255 255 255
1.70923 1.28517 11.0306 255 255 255
1.99691 1.33597 11.168 255 255 255
-1.92953 1.32417 9.13033 255 255 255
-1.10798 1.49907 9.57261 255 255 255
-0.493496 1.4622 9.90314 255 255 255
3.27757 1.71453 12.0803 255 255 255
4.07099 1.68927 12.4908 255 255 255
-1.09873 1.62766 9.74068 255 255 255
-1.06349 1.66483 9.82047 255 255 255
-0.931649 1.60758 9.78821 255 255 255
-0.614305 -0.109002 9.80429 255 255 255
0.328311 -0.0639591 10.2894 255 255 255
0.327738 -0.063806 10.2841 255 255 255
1.4293 -0.128595 10.8065 255 255 255
1.43243 -0.127818 10.8227 255 255 255
2.70498 -0.099322 11.484 255 255 255
-2.69593 0.0401244 8.35783 255 255 255
-1.90517 0.0125145 9.14409 255 255 255
-2.69674 0.10552 8.36323 255 255 255
2.33295 0.267938 11.5591 255 255 255
-0.719469 0.297003 9.86792 255 255 255
-2.36611 0.502538 8.95405 255 255 255
2.52444 0.609539 11.5754 255 255 255
-2.29502 0.755675 9.01744 255 255 255
-0.633864 0.835466 10.0008 255 255 255
3.86835 1.07607 12.4222 255 255 255
4.3416 1.06502 12.7786 255 255 255
-1.89281 0.889501 9.20489 255 255 255
1.45171 1.13317 11.0083 255 255 255
1.54061 1.09006 11.116 255 255 255
-0.2437 1.20437 10.0643 255 255 255
0.26749 1.2338 10.3153 255 255 255
0.266789 1.23265 10.3063 255 255 255
0.350921 1.2417 10.3557 255 255 255
-2.55988 1.21283 8.60992 255 255 255
-2.54335 1.24646 8.63203 255 255 255
0.789759 1.35295 10.5651 255 255 255
2.70832 1.50835 11.5661 255 255 255
-1.54706 1.43446 9.3371 255 255 255
1.15787 1.524 10.7722 255 255 255
-1.35864 1.69542 6.55677 255 255 255
3.27054 -0.34711 11.7455 255 255 255
-1.00216 0.264341 9.70038 255 255 255
-2.13335 0.425615 9.07169 255 255 255
-2.13499 0.425494 9.07089 255 255 255
0.156468 0.460168 10.3496 255 255 255
-2.5088 0.6877 8.47586 255 255 255
-1.23976 0.801465 9.66523 255 255 255
4.25641 1.16462 12.4791 255 255 255
-2.52302 1.03835 8.57732 255 255 255
2.3448 1.3513 11.3624 255 255 255
4.41996 1.39911 12.5197 255 255 255
-1.8964 1.22576 9.20368 255 255 255
-1.83198 1.27465 9.17806 255 255 255
0.622892 1.34027 10.4715 255 255 255
3.89303 1.64603 12.3454 255 255 255
4.08076 1.57457 12.3461 255 255 255
2.95167 1.69932 11.8953 255 255 255
-1.82203 1.68067 6.20995 255 255 255
0.900443 -0.0486704 10.5881 255 255 255
3.35689 0.449835 11.9661 255 255 255
3.32933 0.537057 11.9299 255 255 255
-0.0229681 0.856521 10.3008 255 255 255
0.135341 1.09256 10.3575 255 255 255
3.73955 1.17869 12.1672 255 255 255
4.09058 1.16612 12.4265 255 255 255
-1.94372 1.02141 9.25896 255 255 255
-1.94718 1.11414 9.25733 255 255 255
4.09496 1.35525 12.2477 255 255 255
-0.329523 1.30445 9.95722 255 255 255
0.834183 1.4051 10.5826 255 255 255
-2.4373 0.287878 8.89858 255 255 255
-2.48372 0.976642 8.97404 255 255 255
-2.38786 0.976091 9.01646 255 255 255
-2.26871 0.981808 9.03753 255 255 255
4.46613 1.49947 12.5207 255 255 255
2.8728 0.0673556 11.6744 255 255 255
-2.04133 0.192649 9.043 255 255 255
-2.21458 0.910937 9.07707 255 255 255
-1.99279 0.906525 9.15953 255 255 255
-0.516709 1.15353 9.99125 255 255 255
0.651041 1.17923 10.5769 255 255 255
-2.13494 0.193469 8.98933 255 255 255
-1.928 0.181389 9.06975 255 255 255
-2.52023 0.933263 8.55622 255 255 255
-0.814976 1.38985 9.75044 255 255 255
3.74081 0.0259901 12.1192 255 255 255
2.51392 0.793499 11.7896 255 255 255
-1.63741 -0.511968 9.70766 255 255 255
-1.46499 -0.366848 9.29905 255 255 255
-0.60572 -0.432033 9.75232 255 255 255
-0.60572 -0.432033 9.75232 255 255 255
-0.606157 -0.382024 9.74065 255 255 255
-0.606394 -0.382031 9.74176 255 255 255
-0.550472 -0.42438 9.74313 255 255 255
0.286706 -0.421707 10.1904 255 255 255
1.42193 -0.424143 10.7866 255 255 255
1.47027 -0.428441 10.7982 255 255 255
1.83022 -0.425507 10.9855 255 255 255
2.51839 -0.377027 11.3344 255 255 255
2.51853 -0.377004 11.3349 255 255 255
2.669 -0.419853 11.3981 255 255 255
2.6753 -0.421308 11.4285 255 255 255
2.59529 -0.372564 11.3753 255 255 255
-2.71888 -0.145513 8.38094 255 255 255
-2.71888 -0.145513 8.38094 255 255 255
-2.69187 -0.163345 8.41213 255 255 255
0.9639 -0.151911 10.572 255 255 255
-2.7315 0.0471785 8.37002 255 255 255
-2.08735 0.0585908 9.19201 255 255 255
-1.97041 0.122151 9.07311 255 255 255
-2.54006 0.422367 8.45242 255 255 255
-0.47474 0.483599 10.0173 255 255 255
-0.158097 0.41865 10.1655 255 255 255
2.08927 0.469826 11.3319 255 255 255
2.40903 0.474195 11.5016 255 255 255
3.52965 0.47577 12.0714 255 255 255
0.787174 0.638202 10.6855 255 255 255
2.47572 0.597417 11.5472 255 255 255
3.39168 0.60077 12.0224 255 255 255
-2.22136 0.716132 9.02701 255 255 255
-1.45 0.912085 9.57377 255 255 255
1.45691 0.960268 11.0865 255 255 255
1.55957 0.990084 11.2103 255 255 255
1.90788 1.02238 11.3558 255 255 255
4.01402 1.03379 12.6888 255 255 255
4.02707 1.07558 12.3929 255 255 255
0.0274422 1.12675 10.2709 255 255 255
0.393471 1.09883 10.4804 255 255 255
0.51097 1.08891 10.5876 255 255 255
1.12669 1.13041 10.8432 255 255 255
1.293 1.21012 10.8511 255 255 255
1.60798 1.08603 11.1237 255 255 255
2.02394 1.24093 11.214 255 255 255
2.02442 1.24115 11.2168 255 255 255
2.22999 1.08937 11.4486 255 255 255
2.26825 1.10269 11.4675 255 255 255
2.49652 1.1729 11.5167 255 255 255
2.65415 1.11059 11.6418 255 255 255
3.30575 1.24247 11.864 255 255 255
3.87758 1.21885 12.2365 255 255 255
-2.54482 1.14166 8.60455 255 255 255
-0.459726 1.29108 9.89453 255 255 255
0.225432 1.22193 10.3065 255 255 255
0.445262 1.24121 10.3959 255 255 255
1.02823 1.26555 10.6844 255 255 255
2.07384 1.38799 11.2189 255 255 255
2.07396 1.38802 11.2196 255 255 255
3.3328 1.348 11.8934 255 255 255
3.33521 1.34909 11.9024 255 255 255
4.25959 1.47707 12.3779 255 255 255
-2.93698 1.29007 8.54501 255 255 255
-2.1293 1.3318 9.03926 255 255 255
1.28921 1.40336 10.812 255 255 255
2.37341 1.46709 11.3836 255 255 255
2.50856 1.6187 11.5763 255 255 255
2.70939 1.46767 11.5694 255 255 255
3.37035 1.59252 12.0247 255 255 255
-2.70069 1.33134 8.60454 255 255 255
-2.47935 1.39354 8.77013 255 255 255
-2.47915 1.39377 8.77098 255 255 255
-2.25926 1.45721 8.97727 255 255 255
-2.26284 1.50299 8.99162 255 255 255
-2.40473 1.55484 8.96348 255 255 255
-2.34087 1.58033 9.02869 255 255 255
-2.3374 1.57813 9.01848 255 255 255
-2.24482 1.55824 9.04986 255 255 255
-1.88801 1.68855 9.41144 255 255 255
-1.75823 1.56274 9.31459 255 255 255
-1.22858 1.52778 7.22394 255 255 255
-1.83831 1.47631 6.28319 255 255 255
-0.998965 1.64079 7.30388 255 255 255
-1.82269 1.55415 6.25318 255 255 255
-1.60854 1.57655 6.31702 255 255 255
-1.38649 1.61483 6.61853 255 255 255
-1.34651 1.6182 6.63665 255 255 255
-1.27423 1.69311 6.75738 255 255 255
-0.349907 2.05654 7.67313 255 255 255
-1.66618 -0.39954 9.19514 255 255 255
-0.858744 -0.426441 9.6323 255 255 255
-0.632567 -0.406069 9.73254 255 255 255
-0.632567 -0.406069 9.73254 255 255 255
0.13565 -0.396661 10.0929 255 255 255
0.551919 -0.405658 10.3143 255 255 255
0.921647 -0.365258 10.5142 255 255 255
0.991904 -0.384629 10.5514 255 255 255
1.54173 -0.389728 10.8275 255 255 255
1.54158 -0.389817 10.8273 255 255 255
2.87361 -0.397006 11.5175 255 255 255
3.35717 -0.621627 13.6263 255 255 255
3.36419 -0.619847 13.6398 255 255 255
4.10304 -0.310335 12.1593 255 255 255
-1.1178 -0.0769319 9.54982 255 255 255
-0.612738 -0.109118 9.79197 255 255 255
1.55443 -0.0308846 10.9317 255 255 255
2.66088 -0.125287 11.447 255 255 255
3.18693 -0.143016 11.7063 255 255 255
2.44359 0.126892 11.558 255 255 255
3.76267 0.0586746 12.1336 255 255 255
-2.13085 0.255699 9.03875 255 255 255
0.83514 0.318836 10.6399 255 255 255
0.83514 0.318836 10.6399 255 255 255
-1.23745 0.416872 9.60567 255 255 255
-0.924571 0.333019 9.75887 255 255 255
-2.45938 0.489001 8.47332 255 255 255
0.995667 0.606869 10.7904 255 255 255
0.999124 0.606772 10.7949 255 255 255
2.29642 0.66179 11.587 255 255 255
2.29041 0.849778 11.6234 255 255 255
-2.30366 0.815043 9.03903 255 255 255
-2.13208 0.817561 9.15209 255 255 255
-2.00933 0.847909 9.1672 255 255 255
-1.44984 0.933031 9.58607 255 255 255
2.39932 0.932903 11.674 255 255 255
2.43158 1.08666 11.589 255 255 255
-1.74748 1.06062 9.38776 255 255 255
-0.928166 1.08345 9.84091 255 255 255
-0.401597 1.08482 10.1131 255 255 255
0.878708 1.13133 10.7188 255 255 255
2.0236 1.12723 11.3081 255 255 255
1.97978 1.23531 11.2135 255 255 255
0.0817218 1.24941 10.2041 255 255 255
0.245476 1.27278 10.2882 255 255 255
0.722081 1.24904 10.5458 255 255 255
0.996546 1.31629 10.6437 255 255 255
1.53572 1.28467 10.9504 255 255 255
1.59211 1.27018 10.9774 255 255 255
3.42244 1.40487 11.9426 255 255 255
3.6916 1.68937 12.2833 255 255 255
-2.49817 1.36895 8.72284 255 255 255
-2.53325 1.4081 8.73434 255 255 255
-2.50824 1.43373 8.75672 255 255 255
-2.47531 1.47243 8.84494 255 255 255
-2.34244 1.46367 8.93753 255 255 255
-2.34244 1.46367 8.93753 255 255 255
-2.79591 1.48154 8.63772 255 255 255
-2.08016 1.55463 9.12882 255 255 255
-2.08006 1.55435 9.12808 255 255 255
-2.00989 1.58174 6.13363 255 255 255
-0.558405 1.9307 7.58622 255 255 255
-1.11025 -0.416432 9.4747 255 255 255
-0.192934 -0.381759 9.92819 255 255 255
0.192449 -0.335657 10.1403 255 255 255
1.37914 -0.380256 10.7494 255 255 255
2.66601 -0.371207 11.4122 255 255 255
4.06243 -0.271281 12.1537 255 255 255
4.06243 -0.271281 12.1537 255 255 255
-1.1246 -0.0295597 9.57811 255 255 255
-0.0797679 -0.124085 10.0429 255 255 255
-0.0792258 -0.124325 10.0379 255 255 255
