ply
format ascii 1.0
element vertex 1068
property float x
property float y
property float z
property uchar red
property uchar green
property uchar blue
end_header
0.00108566 0.0117926 0.0511919 255 255 255
0.000706457 0.0121099 0.0505409 255 255 255
-0.00363805 -0.00564885 0.0666511 255 255 255
0.000477812 -0.00602839 0.0672206 255 255 255
0.00483813 -0.00175126 0.0618249 255 255 255
0.0052345 -0.000877992 0.0614643 255 255 255
0.0054047 -0.000121896 0.0613081 255 255 255
0.000388284 0.000335891 0.061935 255 255 255
-0.000174486 0.00107474 0.0623268 255 255 255
0.00171275 0.00193694 0.0618363 255 255 255
0.00583851 0.00500395 0.0544673 255 255 255
-0.001008 0.00641695 0.0548518 255 255 255
-0.0036744 0.0112897 0.0583501 255 255 255
-0.00764215 0.00354756 0.0564578 255 255 255
-0.00614002 0.00671256 0.0555748 255 255 255
-0.00613836 0.00670748 0.0555745 255 255 255
-0.0489834 0.0194192 0.15575 255 255 255
-0.00507482 0.0083687 0.0536195 255 255 255
-0.00347361 0.0119646 0.0594397 255 255 255
-0.00347361 0.0119646 0.0594397 255 255 255
0.00821703 0.00022733 0.0610125 255 255 255
-0.00290227 0.00524107 0.0560349 255 255 255
0.00198421 0.00675191 0.0537122 255 255 255
-0.00535224 0.0129338 0.0577391 255 255 255
0.00556512 -0.00150544 0.0617158 255 255 255
-0.00516831 -0.000687015 0.0662029 255 255 255
-0.00211957 0.00763851 0.0533536 255 255 255
0.00430709 -0.00533464 0.0659681 255 255 255
-0.00366423 -0.00680747 0.0669885 255 255 255
-0.00263261 -0.00744194 0.0677249 255 255 255
-0.00311758 -0.00698013 0.0672923 255 255 255
-0.00379781 -0.00645707 0.0668633 255 255 255
0.00314239 -0.00609444 0.0648105 255 255 255
0.00411112 -0.00564137 0.0646419 255 255 255
-0.00138386 -0.0039635 0.0652168 255 255 255
0.00357543 -0.00357614 0.0629111 255 255 255
-0.00119272 -0.00275335 0.0638908 255 255 255
0.00317061 -0.00178493 0.0616684 255 255 255
-0.00651882 -0.00152512 0.0636274 255 255 255
-0.00440166 -0.00106407 0.0664579 255 255 255
0.00276631 -0.00123395 0.0616871 255 255 255
0.0031757 -0.00106993 0.0615053 255 255 255
0.00850783 -0.00139229 0.0638388 255 255 255
0.00154311 0.000690915 0.0624366 255 255 255
-0.00422252 0.00107003 0.0644706 255 255 255
-6.05147e-05 0.00130652 0.0622017 255 255 255
-6.02967e-05 0.00130955 0.0622262 255 255 255
-9.1424e-06 0.000854271 0.0619223 255 255 255
0.00223726 0.00188526 0.0614794 255 255 255
0.00624332 0.00156796 0.0639569 255 255 255
-0.00341904 0.00466142 0.056059 255 255 255
-0.00212858 0.00455406 0.0558703 255 255 255
-0.00180754 0.00453299 0.0558178 255 255 255
-0.00116145 0.0044893 0.055716 255 255 255
-0.00116179 0.00448919 0.0557085 255 255 255
0.00109251 0.00429006 0.05539 255 255 255
0.00398259 0.00403616 0.054985 255 255 255
0.00462778 0.00397878 0.0548924 255 255 255
0.00495082 0.00394974 0.0548381 255 255 255
-0.00792773 0.00503887 0.056704 255 255 255
-0.00535498 0.00482789 0.0563383 255 255 255
-0.0050345 0.00480373 0.0562853 255 255 255
-0.00503475 0.00480387 0.0562867 255 255 255
0.00344648 0.00497813 0.0548673 255 255 255
-0.00591281 0.00560117 0.0564238 255 255 255
0.00257526 0.00544781 0.0546966 255 255 255
-0.00106123 0.00599127 0.0551395 255 255 255
0.00319561 0.00631918 0.0538903 255 255 255
0.00558226 0.00593546 0.0538188 255 255 255
0.00558208 0.00593452 0.0538331 255 255 255
-0.00646988 0.00722105 0.055004 255 255 255
-0.00426179 0.00682696 0.0551471 255 255 255
-0.00391261 0.00699371 0.0546351 255 255 255
-0.000689114 0.00713999 0.0540938 255 255 255
0.000822962 0.00693044 0.0539531 255 255 255
0.00286944 0.00676344 0.0536578 255 255 255
0.00394618 0.00667809 0.0535544 255 255 255
-0.00677163 0.00776495 0.0549461 255 255 255
-0.00501415 0.00743627 0.0547479 255 255 255
-0.00663389 0.00880137 0.053814 255 255 255
-0.00207803 0.0101025 0.0575634 255 255 255
0.00380231 0.0109895 0.057928 255 255 255
-0.00392803 -0.00769449 0.0678377 255 255 255
0.00280231 -0.00639006 0.0649254 255 255 255
0.000828131 -0.00546016 0.0668736 255 255 255
0.00495048 -0.00563344 0.0649829 255 255 255
-0.00297231 -0.00445343 0.0660149 255 255 255
-0.00170805 -0.00335707 0.0644395 255 255 255
0.00187612 -0.00378331 0.0629967 255 255 255
-0.0018408 -0.00314999 0.0644008 255 255 255
-0.000391365 -0.00162883 0.0632871 255 255 255
0.00394324 -0.000963011 0.0612412 255 255 255
0.00546785 -0.00144675 0.0617535 255 255 255
0.00623755 -0.000426728 0.0612455 255 255 255
0.00875857 0.00196756 0.0635949 255 255 255
0.0101695 0.00180049 0.0596236 255 255 255
0.0101634 0.00179669 0.0596058 255 255 255
0.000126835 0.00437776 0.0555276 255 255 255
-0.00175514 0.00498039 0.0558745 255 255 255
0.00669669 0.00490724 0.0543421 255 255 255
0.00716449 0.00498729 0.054154 255 255 255
-0.00568531 0.00651218 0.0557266 255 255 255
-0.00134051 0.00600394 0.055204 255 255 255
-0.00501915 0.00722701 0.0547226 255 255 255
-0.00153398 0.0066314 0.0547964 255 255 255
-0.00082762 0.00709556 0.054151 255 255 255
-0.000405508 0.00705393 0.0540838 255 255 255
0.00766974 0.00648463 0.0529855 255 255 255
-0.00226203 0.00937894 0.0566185 255 255 255
0.0036311 0.0101724 0.0575433 255 255 255
0.000453493 0.0121539 0.0504382 255 255 255
-0.0021387 -0.00717314 0.0676505 255 255 255
-0.000969399 -0.00614437 0.0675992 255 255 255
-4.85609e-05 -0.00627958 0.0673273 255 255 255
0.00366236 -0.00608531 0.0649458 255 255 255
0.0110771 -0.00091645 0.062617 255 255 255
-0.00597917 0.00280718 0.0609558 255 255 255
-0.00358977 0.00472032 0.056046 255 255 255
-0.00326632 0.0046815 0.0559948 255 255 255
-0.00294107 0.00467418 0.0559389 255 255 255
-0.00261853 0.00464303 0.055893 255 255 255
-0.0022913 0.00461622 0.0558494 255 255 255
-0.0016499 0.00456827 0.0557514 255 255 255
-0.00164901 0.00456682 0.0557471 255 255 255
-0.00132873 0.00455256 0.0557004 255 255 255
0.00510821 0.00395938 0.0547979 255 255 255
-0.00819965 0.00487489 0.0568338 255 255 255
-0.0074407 0.00503506 0.0565575 255 255 255
-0.00711379 0.00500556 0.0565114 255 255 255
-0.00519746 0.00485174 0.0562769 255 255 255
-0.00422764 0.00476738 0.0561311 255 255 255
-0.00391083 0.00474851 0.0560858 255 255 255
-0.00439173 0.00583954 0.0559249 255 255 255
-0.00265133 0.00543923 0.0557504 255 255 255
0.000817646 0.0058021 0.0548942 255 255 255
0.000817983 0.00580107 0.0548921 255 255 255
0.00455406 0.00534181 0.0544331 255 255 255
0.00623313 0.00574454 0.0538303 255 255 255
-0.00471626 0.00674425 0.0553655 255 255 255
-0.0424674 0.0221314 0.15546 255 255 255
-0.0408576 0.022632 0.154952 255 255 255
0.00472956 0.00902535 0.0555119 255 255 255
0.00493594 0.00980365 0.0565604 255 255 255
-0.000823381 -0.00532263 0.067133 255 255 255
0.00210453 -0.00401719 0.0630289 255 255 255
0.000901982 -0.00162236 0.0622929 255 255 255
-0.00870699 1.67058e-05 0.0625265 255 255 255
0.00192629 0.00142112 0.0616566 255 255 255
-0.00923384 0.00367698 0.0566985 255 255 255
0.0048919 0.00354807 0.0548253 255 255 255
0.000890459 0.00942674 0.052735 255 255 255
0.00455824 0.0101455 0.0574889 255 255 255
0.00548794 -0.00361052 0.0654183 255 255 255
-0.00535689 0.000639996 0.0652952 255 255 255
-0.00475489 0.00328898 0.056033 255 255 255
0.00256258 0.00509458 0.0549261 255 255 255
0.00503018 0.00561308 0.0541766 255 255 255
-0.000237612 0.00628897 0.0547498 255 255 255
0.00622572 0.00619077 0.0534525 255 255 255
0.00489523 0.00680089 0.0532754 255 255 255
-0.00817259 0.00840648 0.054327 255 255 255
-0.0027581 0.00962677 0.0565353 255 255 255
-0.044351 0.00627215 0.168513 255 255 255
0.00210568 0.00513624 0.0552171 255 255 255
-0.00673258 0.00596665 0.0563253 255 255 255
0.0020656 0.00564994 0.0547049 255 255 255
-0.0460585 0.0182446 0.1577 255 255 255
-0.00700524 0.00703766 0.0554344 255 255 255
0.00322464 -0.00728678 0.0671025 255 255 255
-0.00559765 0.00575523 0.0562456 255 255 255
0.00604528 0.0086487 0.0527052 255 255 255
0.00862206 0.0018714 0.0637724 255 255 255
-0.0481477 0.0246746 0.153692 255 255 255
0.00241512 -0.00328437 0.062595 255 255 255
-0.0042957 -0.00678339 0.0671096 255 255 255
-0.00383709 -0.00575189 0.0666684 255 255 255
-0.00262558 -0.00543308 0.0669419 255 255 255
0.000345162 -0.00545069 0.0670172 255 255 255
-0.0036423 -0.00422988 0.0672495 255 255 255
-0.00209987 -0.0041195 0.0649675 255 255 255
0.000278216 -0.00482364 0.0662806 255 255 255
0.00135465 -0.00477362 0.0648658 255 255 255
-0.00200507 -0.00325502 0.0645158 255 255 255
-0.0043769 -0.00229841 0.0638526 255 255 255
-3.87538e-05 -0.00245149 0.0625375 255 255 255
0.000991298 -0.00288829 0.0632471 255 255 255
-0.00781931 -0.000594227 0.0631524 255 255 255
-0.00528301 -0.00105362 0.0663071 255 255 255
0.0092061 -0.00152118 0.0634164 255 255 255
0.00415717 -0.000467421 0.061084 255 255 255
0.0116214 -0.00124802 0.062526 255 255 255
-0.00545334 0.000409583 0.0652127 255 255 255
-0.0050858 0.000124725 0.0655148 255 255 255
0.00228686 0.000421512 0.063034 255 255 255
0.00642046 0.000850654 0.0637422 255 255 255
-0.000289777 0.00208168 0.0604802 255 255 255
0.00178756 0.00159314 0.0616271 255 255 255
-0.00760798 0.00501282 0.0566567 255 255 255
-0.00483878 0.00450901 0.0562718 255 255 255
-0.0030995 0.00463628 0.0560099 255 255 255
-0.00277376 0.00460841 0.0559563 255 255 255
-0.00245031 0.00458169 0.0559175 255 255 255
-0.00245031 0.00458169 0.0559175 255 255 255
-0.00148505 0.00450935 0.0557631 255 255 255
-0.00148505 0.00450935 0.0557631 255 255 255
0.000443691 0.0043519 0.0554814 255 255 255
0.000443716 0.00435165 0.0554837 255 255 255
0.00430665 0.00400437 0.0549437 255 255 255
0.00632432 0.00488169 0.0544459 255 255 255
-0.00564123 0.00603337 0.0560836 255 255 255
-0.00134912 0.00576343 0.0553864 255 255 255
0.00202256 0.00541973 0.054811 255 255 255
0.00580223 0.00555148 0.0540929 255 255 255
-0.0015658 0.00618987 0.0550963 255 255 255
-0.0015658 0.00618987 0.0550963 255 255 255
0.00639936 0.00557089 0.0538646 255 255 255
-0.00466791 0.00697571 0.0551882 255 255 255
0.00553434 0.00663634 0.0532816 255 255 255
0.00609483 0.00647996 0.0531682 255 255 255
0.00632893 0.00629684 0.0531397 255 255 255
-0.00728445 0.00775401 0.0550848 255 255 255
0.00251334 0.00716623 0.0534903 255 255 255
0.000636325 0.0093979 0.0525957 255 255 255
-0.00028677 0.00981975 0.0523161 255 255 255
0.00411511 0.0107088 0.0579105 255 255 255
-0.00330342 -0.00821748 0.0680113 255 255 255
0.00175074 -0.00719366 0.0672679 255 255 255
-0.0050456 -0.00524211 0.0661722 255 255 255
-0.00365744 -0.0052647 0.0665018 255 255 255
-0.00342443 -0.00448531 0.0675565 255 255 255
0.00162196 -0.00471524 0.0636504 255 255 255
0.00179436 -0.00418898 0.0631632 255 255 255
-0.00300538 -0.00357614 0.0646844 255 255 255
0.00536354 -0.00264423 0.0626759 255 255 255
-0.00748083 -0.000584585 0.0633228 255 255 255
0.00520664 -0.00174833 0.061987 255 255 255
9.08026e-05 0.00152105 0.0610474 255 255 255
9.18401e-05 0.00152262 0.0610167 255 255 255
-0.000441801 0.00182769 0.0609802 255 255 255
0.000289884 0.00203758 0.060898 255 255 255
-4.57093e-05 0.00417286 0.0556136 255 255 255
0.00766844 0.00391431 0.0544145 255 255 255
-0.00207541 0.00527587 0.0559001 255 255 255
-0.00395452 0.00559719 0.0559812 255 255 255
0.00315595 0.00616102 0.0539891 255 255 255
-0.0405586 0.0233509 0.153691 255 255 255
-0.00344768 0.00745136 0.0545039 255 255 255
-0.00156369 0.00772441 0.0540098 255 255 255
0.00505833 0.00976339 0.0562028 255 255 255
-0.00401987 -0.00795383 0.0682407 255 255 255
0.0017451 -0.00298536 0.062714 255 255 255
0.0033885 -0.00331835 0.0625298 255 255 255
0.00261876 -0.00170348 0.0618774 255 255 255
0.00370314 -0.000688871 0.0612515 255 255 255
0.00264565 0.000433363 0.0630592 255 255 255
0.0102792 0.00144942 0.0597015 255 255 255
-0.000421457 0.00270656 0.0554568 255 255 255
-0.00616079 0.00493419 0.0564229 255 255 255
-0.00584149 0.00490242 0.0563727 255 255 255
-0.00584147 0.00490219 0.0563737 255 255 255
-0.00552057 0.00487435 0.0563279 255 255 255
-0.00487665 0.00482397 0.0562313 255 255 255
-0.00455374 0.00479466 0.0561874 255 255 255
-0.00326631 0.0046818 0.0559951 255 255 255
-0.00132825 0.00455194 0.0557022 255 255 255
0.00157203 0.00427635 0.0552947 255 255 255
0.00381443 0.00407449 0.0549653 255 255 255
-0.00745321 0.0050329 0.0565993 255 255 255
-0.00712528 0.00500508 0.0565526 255 255 255
-0.0068062 0.00498144 0.0564961 255 255 255
-0.00289176 0.00489309 0.0560225 255 255 255
-0.00421404 0.00716185 0.0546136 255 255 255
-4.1015e-05 0.00668445 0.0543149 255 255 255
-0.00331669 -0.00351868 0.0647361 255 255 255
0.000958952 -0.00341799 0.0638765 255 255 255
0.00963137 -0.00115918 0.0625872 255 255 255
0.0108007 -0.000286277 0.0631439 255 255 255
-0.00168695 0.00274117 0.0584479 255 255 255
-0.00406963 0.00526743 0.0563149 255 255 255
-0.00585041 0.0065439 0.0556609 255 255 255
-0.00585392 0.00654974 0.0556772 255 255 255
0.00482155 0.00727729 0.0524389 255 255 255
-0.00337666 -0.00662049 0.0669729 255 255 255
-0.00286838 -0.00476297 0.0661141 255 255 255
-0.00296759 -0.0038571 0.0649696 255 255 255
0.00864688 0.000912389 0.0643299 255 255 255
0.00864688 0.000912389 0.0643299 255 255 255
-0.00291549 0.00314238 0.055759 255 255 255
-0.00189048 0.00306498 0.0555896 255 255 255
0.00420195 0.00498611 0.054709 255 255 255
0.00420102 0.00498649 0.0547515 255 255 255
0.0065973 0.00539437 0.0540411 255 255 255
0.00659733 0.005392 0.0540382 255 255 255
-0.00305627 0.00650703 0.0551433 255 255 255
0.00406383 -0.00599264 0.0655703 255 255 255
0.00523765 -0.00033973 0.0612147 255 255 255
0.000671886 0.0063308 0.0544345 255 255 255
0.00326477 0.00667252 0.0535635 255 255 255
-0.00280221 0.012319 0.0598599 255 255 255
-0.00136816 -0.00444906 0.0654537 255 255 255
-0.00433615 -0.00150879 0.0644316 255 255 255
0.00963157 0.00172223 0.0601055 255 255 255
-0.00272215 -0.00350433 0.0646415 255 255 255
-0.0031589 -0.00774296 0.0676713 255 255 255
-0.00249223 -0.00768171 0.0679526 255 255 255
-0.00480415 -0.00662117 0.0673838 255 255 255
-0.00416447 -0.00669301 0.0669727 255 255 255
0.00216461 -0.00748445 0.0675369 255 255 255
0.00110303 -0.00628919 0.0663644 255 255 255
-0.00243466 -0.00493899 0.0663984 255 255 255
0.000314857 -0.00498577 0.0664773 255 255 255
-0.00382348 -0.00306463 0.0644817 255 255 255
-0.000518327 -0.00303378 0.0637959 255 255 255
-0.000965463 -0.00269585 0.063863 255 255 255
0.000850247 -0.0027536 0.0631024 255 255 255
-0.00893137 -0.000335421 0.062915 255 255 255
-0.00311485 -0.000715925 0.0653769 255 255 255
0.00454044 -0.00102257 0.0612277 255 255 255
6.89056e-05 0.000443288 0.0623149 255 255 255
0.00782468 6.98497e-06 0.061169 255 255 255
-0.00504514 0.00212613 0.0618204 255 255 255
-0.00372258 0.00194147 0.0612324 255 255 255
0.00697268 0.00119696 0.0639541 255 255 255
-0.0086527 0.00556293 0.0583474 255 255 255
-0.005356 0.00482797 0.0563272 255 255 255
-0.00438791 0.00474673 0.0562018 255 255 255
-0.00212892 0.00455368 0.0558687 255 255 255
-0.00679214 0.00573701 0.0564768 255 255 255
-0.00404757 0.00575346 0.0558538 255 255 255
0.00117716 0.00495275 0.0554255 255 255 255
-0.00294715 0.00591128 0.0553679 255 255 255
-0.00272161 0.00688365 0.0544341 255 255 255
0.00436458 0.00584944 0.0540674 255 255 255
0.00437383 0.00584402 0.0541021 255 255 255
0.00450448 0.00602622 0.0539518 255 255 255
-0.00182874 0.00745258 0.0541811 255 255 255
0.00348171 0.00636435 0.0535393 255 255 255
0.00429859 0.0109518 0.0578656 255 255 255
-0.0016722 -0.00693422 0.067763 255 255 255
0.00473168 -0.00698514 0.0668544 255 255 255
-0.00341181 -0.00449707 0.06768 255 255 255
-0.00136429 -0.00530261 0.0667889 255 255 255
0.00384626 -0.00555325 0.0647077 255 255 255
-0.0035447 -0.00336077 0.0646806 255 255 255
-0.0035501 -0.00336185 0.0646623 255 255 255
0.00636187 -0.0039293 0.0654951 255 255 255
0.00566084 -0.00129225 0.0616233 255 255 255
0.00566084 -0.00129225 0.0616233 255 255 255
0.00668698 -0.00106637 0.0618609 255 255 255
-0.000576031 0.00183577 0.0612961 255 255 255
-0.00843977 0.00458492 0.0567281 255 255 255
-0.00743354 0.00520547 0.0565793 255 255 255
-0.00743237 0.00520671 0.0565992 255 255 255
-0.0058069 0.00510027 0.0564309 255 255 255
-0.00454281 0.00498811 0.0562317 255 255 255
-0.00133827 0.00600326 0.0552084 255 255 255
0.00463573 0.00567721 0.0541815 255 255 255
0.00213192 0.00663836 0.0537722 255 255 255
0.00233079 0.00693228 0.0536845 255 255 255
0.00607377 0.0111929 0.0569294 255 255 255
-0.00233378 -0.00751597 0.0679267 255 255 255
-0.000697809 -0.00597852 0.0677046 255 255 255
0.000466348 -0.00572295 0.06706 255 255 255
-0.00458604 -0.00488211 0.0666903 255 255 255
-0.00458592 -0.00488125 0.0667033 255 255 255
0.00499016 -0.00119643 0.0615209 255 255 255
-0.00484955 0.000211981 0.0656241 255 255 255
0.00399589 -0.000592086 0.0611538 255 255 255
-0.00122808 0.000764112 0.0627952 255 255 255
0.000484377 0.00104213 0.0621635 255 255 255
0.00652088 0.00130276 0.0639095 255 255 255
0.00652278 0.00130204 0.0639138 255 255 255
-0.00745485 0.00503205 0.0565915 255 255 255
-0.0064878 0.00495652 0.0564596 255 255 255
-0.00615991 0.00493365 0.0564166 255 255 255
-0.00455488 0.00479495 0.0561847 255 255 255
-0.00422628 0.0047686 0.0561406 255 255 255
-0.00391065 0.00474851 0.0560861 255 255 255
-0.00196485 0.00459198 0.0558174 255 255 255
0.00189256 0.00424078 0.0552504 255 255 255
0.00221636 0.00421148 0.0552122 255 255 255
0.00253902 0.00418526 0.0551766 255 255 255
0.00286298 0.00416106 0.0551347 255 255 255
0.00414805 0.00404407 0.0549551 255 255 255
0.00671594 0.00382425 0.0545576 255 255 255
0.00703112 0.00380271 0.054503 255 255 255
-0.00351856 0.00577344 0.0556699 255 255 255
0.00372144 0.00502789 0.0547869 255 255 255
0.00719219 0.00656739 0.0529574 255 255 255
-0.00671565 0.0100344 0.0534633 255 255 255
-0.00388879 -0.00200497 0.0636736 255 255 255
-0.000537995 0.00464042 0.055588 255 255 255
-0.00565075 0.00546343 0.0564732 255 255 255
-0.00548592 0.00646198 0.0557189 255 255 255
-0.000547389 0.00593529 0.0550488 255 255 255
-0.000545939 0.00593426 0.0550419 255 255 255
0.00584581 0.00500774 0.0544854 255 255 255
0.00199912 0.00611722 0.0543182 255 255 255
-0.00397039 -0.00733735 0.0673737 255 255 255
0.00205632 -0.00173127 0.0621796 255 255 255
0.0120438 -0.00094303 0.0624517 255 255 255
-0.00549289 0.00335529 0.0561577 255 255 255
-0.00141201 0.00301911 0.055546 255 255 255
0.00260413 0.00271053 0.0550071 255 255 255
0.00477254 -0.00455832 0.0647589 255 255 255
0.000480269 -0.00363237 0.0637393 255 255 255
-0.00367724 -0.00022842 0.0659574 255 255 255
0.00131097 0.00611944 0.0545107 255 255 255
-0.00409153 -0.00471515 0.0668932 255 255 255
0.00842036 -0.000324 0.0613513 255 255 255
0.00962147 0.00171919 0.0600824 255 255 255
0.00209668 0.00729112 0.053022 255 255 255
-0.00314794 0.00224382 0.0610113 255 255 255
-0.00241889 -0.00710039 0.0676524 255 255 255
-0.00215502 -0.00586453 0.0670304 255 255 255
0.00493779 -0.00671907 0.0668383 255 255 255
-0.00378728 -0.00416865 0.0673097 255 255 255
-0.00313537 -0.0042582 0.0659592 255 255 255
-0.000415664 -0.00483951 0.0668029 255 255 255
0.0012852 -0.00491553 0.0653147 255 255 255
0.00365376 -0.00533668 0.0650612 255 255 255
-0.000527755 -0.00382616 0.0638299 255 255 255
-0.000215272 -0.00235356 0.0626561 255 255 255
-0.00849233 -0.000300155 0.0629575 255 255 255
0.000308315 0.000111701 0.0616075 255 255 255
-0.00268138 0.00216415 0.0607041 255 255 255
-0.00294878 0.00273105 0.0587427 255 255 255
-0.000950499 0.00210809 0.0604106 255 255 255
-0.00567645 0.00485644 0.0563798 255 255 255
-0.00276978 0.0046109 0.0559744 255 255 255
-0.00180754 0.00453299 0.0558178 255 255 255
0.000127914 0.00437802 0.0555325 255 255 255
0.0027562 0.00566578 0.0544673 255 255 255
0.0028914 0.0061797 0.0540506 255 255 255
0.00141883 0.00719454 0.0537119 255 255 255
0.00528498 0.00664989 0.0532832 255 255 255
-0.000459238 0.00943031 0.0526806 255 255 255
-0.00416099 -0.00565156 0.0665571 255 255 255
0.00167897 -0.00737636 0.0676206 255 255 255
0.00166948 -0.00737314 0.0676064 255 255 255
-0.00273982 -0.00356882 0.064686 255 255 255
-0.00229727 -0.00398385 0.0650931 255 255 255
-0.00210055 -0.00371259 0.064855 255 255 255
0.00451561 -0.00452889 0.0650371 255 255 255
-0.000399817 -0.00300693 0.063431 255 255 255
-0.000417373 -0.00280052 0.0638019 255 255 255
0.00546127 -0.000955302 0.0615318 255 255 255
0.0114571 -0.00121753 0.0625883 255 255 255
0.00280939 0.00242536 0.0577527 255 255 255
-0.00748759 0.0058196 0.0565913 255 255 255
-0.00384719 0.00492304 0.0561263 255 255 255
-0.000363631 0.00470077 0.0556301 255 255 255
0.0002819 0.00446306 0.055458 255 255 255
0.00647673 0.00403547 0.0546451 255 255 255
0.0071193 0.00397952 0.0545818 255 255 255
0.00876557 0.00346183 0.0550463 255 255 255
-0.00015985 0.00573854 0.0551641 255 255 255
-0.0043381 0.00751436 0.0546353 255 255 255
-0.00236704 0.00734294 0.0543704 255 255 255
0.00751662 0.00692464 0.0527299 255 255 255
6.48353e-05 -0.00486216 0.0669337 255 255 255
-0.001361 -0.0028148 0.0640169 255 255 255
-0.00712449 0.00500649 0.0565546 255 255 255
-0.00680478 0.00498234 0.0565065 255 255 255
-0.00552151 0.00487345 0.0563241 255 255 255
-0.00358648 0.00472088 0.0560551 255 255 255
-0.00103236 0.00412035 0.0557521 255 255 255
-0.00478962 0.00502013 0.0563493 255 255 255
0.00196138 0.00446084 0.0553565 255 255 255
0.00510689 0.00395916 0.0547941 255 255 255
-0.00658293 0.00603734 0.0563521 255 255 255
0.00295368 0.00508673 0.0548656 255 255 255
0.00269766 0.0063149 0.0539708 255 255 255
-0.00260384 0.00738179 0.0542981 255 255 255
0.00773781 0.00688541 0.0526856 255 255 255
0.00354413 0.0091645 0.0559904 255 255 255
-0.00313937 -0.00280995 0.0641331 255 255 255
-0.00313608 -0.00281143 0.0641584 255 255 255
0.000342829 -0.00274012 0.0627993 255 255 255
0.0118806 -0.00123868 0.0624875 255 255 255
0.000131575 0.00134922 0.062018 255 255 255
-0.00387907 0.00430313 0.0560952 255 255 255
0.00111364 0.00448386 0.0553906 255 255 255
0.00239212 0.00648922 0.0541362 255 255 255
-0.00810371 0.00357793 0.0565034 255 255 255
-0.00549116 0.00335523 0.0561485 255 255 255
-0.00321672 0.00316555 0.0558575 255 255 255
0.00746789 0.00662477 0.0529907 255 255 255
0.00707369 0.00731042 0.0519112 255 255 255
0.00191947 -0.00327052 0.0627638 255 255 255
0.00378207 0.00522011 0.0546139 255 255 255
0.00699171 0.0068493 0.0528646 255 255 255
0.00116673 0.00594076 0.0547973 255 255 255
-0.0003969 0.00570738 0.0547598 255 255 255
-0.00167716 -0.00694294 0.0677803 255 255 255
-0.00524755 -0.00553644 0.066493 255 255 255
-0.00510592 -0.00542286 0.0661904 255 255 255
0.00117642 -0.00640893 0.0662502 255 255 255
0.00177016 -0.00623926 0.0657678 255 255 255
-0.00370752 -0.00335616 0.0647143 255 255 255
-0.00240768 -0.00337985 0.064511 255 255 255
-0.000878936 -0.00352631 0.0644857 255 255 255
-0.00511063 -0.000975177 0.0664007 255 255 255
-0.00345001 -0.00180951 0.0636046 255 255 255
0.000982581 -0.0028862 0.0632257 255 255 255
0.00168062 -0.00280482 0.0628375 255 255 255
-0.00359165 -0.00103806 0.0659579 255 255 255
-0.00539724 0.000146764 0.0654567 255 255 255
-5.63052e-05 -0.000986484 0.0619017 255 255 255
0.00323483 -0.00135611 0.0615489 255 255 255
0.00379623 -0.000469344 0.0611686 255 255 255
-0.0036585 0.00219749 0.0610165 255 255 255
-0.00365851 0.00219792 0.0610163 255 255 255
0.00809976 -5.23786e-05 0.0611655 255 255 255
0.00196385 0.00180526 0.0617179 255 255 255
0.000435643 0.00264191 0.0580619 255 255 255
0.0065718 0.00181237 0.0639297 255 255 255
-0.00728376 0.0049879 0.0566143 255 255 255
-0.00266589 0.00571071 0.0555996 255 255 255
0.00635497 0.0045283 0.0546922 255 255 255
-0.00106094 0.00599114 0.0551418 255 255 255
0.00293932 0.00555384 0.0544414 255 255 255
0.0042703 0.00542338 0.0544019 255 255 255
-0.00472808 0.00753373 0.0546878 255 255 255
-0.00011251 0.00708735 0.0539979 255 255 255
0.000585389 0.00701857 0.0539084 255 255 255
0.000591002 0.00701741 0.0539193 255 255 255
0.00082303 0.00693056 0.0539529 255 255 255
-0.00181145 0.00792791 0.0538136 255 255 255
0.00775007 0.00636206 0.0530598 255 255 255
0.00689638 0.0072362 0.0520152 255 255 255
0.00495405 0.00832603 0.0540615 255 255 255
-0.00161816 -0.00750429 0.0673823 255 255 255
0.000201775 -0.0054649 0.0672415 255 255 255
-0.00369102 -0.00441351 0.0673238 255 255 255
-0.000815406 -0.00376472 0.0647159 255 255 255
-0.00548095 -0.00181099 0.0637393 255 255 255
0.0025866 -0.00299832 0.0623657 255 255 255
-0.00239933 -0.000667355 0.0644692 255 255 255
0.00717756 -0.00308472 0.0639848 255 255 255
0.00721329 -0.00309865 0.0640436 255 255 255
-0.00233597 -0.000487199 0.0646726 255 255 255
0.00825 -0.00249464 0.0644477 255 255 255
0.000981687 0.000739256 0.0622377 255 255 255
-0.00930546 0.00391849 0.0569924 255 255 255
-0.000243819 0.00269235 0.0553865 255 255 255
0.00639707 0.00385191 0.054612 255 255 255
0.00748702 0.00331732 0.054457 255 255 255
-0.00305679 0.00556613 0.0558102 255 255 255
-0.00108153 0.00578144 0.0553059 255 255 255
-0.000155813 0.00547488 0.0552994 255 255 255
-0.00583713 0.00714693 0.0548578 255 255 255
-5.83116e-05 0.00648976 0.0544424 255 255 255
0.00018904 0.00722846 0.0539047 255 255 255
0.00254403 0.00691543 0.0536787 255 255 255
-0.00268884 -0.00673177 0.0672254 255 255 255
0.00097646 -0.00633972 0.0666168 255 255 255
0.0050603 -0.00687182 0.0667739 255 255 255
-0.00202863 -0.00445524 0.0652728 255 255 255
-0.000492434 -0.00314145 0.0634254 255 255 255
-0.00595893 -0.00139983 0.0636601 255 255 255
-0.00083747 -0.00223954 0.063748 255 255 255
-0.00083747 -0.00223954 0.063748 255 255 255
0.00324186 -0.00283726 0.0618672 255 255 255
-0.00280923 -0.000735057 0.0649133 255 255 255
0.00161581 -0.0017273 0.0622634 255 255 255
0.00883064 -0.00221112 0.0641268 255 255 255
0.0040807 0.00066828 0.0630432 255 255 255
0.000408066 0.00185542 0.0609166 255 255 255
-0.00648445 0.00495697 0.0564674 255 255 255
-0.00511663 0.00507294 0.056387 255 255 255
-0.0048764 0.00482323 0.0562334 255 255 255
-0.00294107 0.00467418 0.0559389 255 255 255
-0.00265219 0.00544244 0.0557597 255 255 255
-0.00124895 0.00475815 0.0557858 255 255 255
0.00189742 0.00424353 0.0552673 255 255 255
0.00285681 0.00416272 0.0551143 255 255 255
0.00575849 0.00389923 0.0547169 255 255 255
0.000422317 0.0050387 0.055556 255 255 255
0.00230964 0.00505234 0.0550527 255 255 255
0.0063683 0.00419777 0.0546998 255 255 255
-0.00668783 0.0072469 0.0549902 255 255 255
-0.00618026 0.00700946 0.0554407 255 255 255
-0.00615693 0.00720309 0.0553522 255 255 255
-0.00448027 0.00669914 0.0553073 255 255 255
0.00447571 0.00499551 0.0547322 255 255 255
-0.00245805 0.00701636 0.0543587 255 255 255
-0.000630891 0.00673601 0.0543823 255 255 255
0.00685821 0.00533185 0.0539869 255 255 255
0.00420066 0.00631589 0.0538604 255 255 255
-0.000937049 0.010737 0.0575319 255 255 255
-0.00112688 -0.00376301 0.0650864 255 255 255
-0.00782703 -0.000331661 0.0629556 255 255 255
-0.00314457 -0.000933987 0.0651673 255 255 255
0.00227923 0.000341048 0.0630531 255 255 255
0.00672252 0.00419116 0.0546505 255 255 255
-0.000781356 0.00623599 0.0549367 255 255 255
0.000305397 0.00613769 0.0547455 255 255 255
0.00555541 0.00529902 0.0543186 255 255 255
0.00599065 0.00556447 0.0540002 255 255 255
-0.00410945 -0.00588347 0.0665705 255 255 255
0.00877555 0.00213905 0.0541402 255 255 255
-0.0064293 0.00703908 0.0554777 255 255 255
-0.00275278 0.00672945 0.0549126 255 255 255
-0.00166668 0.00790094 0.0534671 255 255 255
-0.00159164 0.00807708 0.0531583 255 255 255
0.00462093 0.00728984 0.0527924 255 255 255
-0.0092387 0.00367384 0.0566522 255 255 255
-0.00639492 0.00633275 0.0560764 255 255 255
0.00251579 0.00540533 0.0547562 255 255 255
0.00132937 0.00614881 0.0545282 255 255 255
0.00129492 -0.00386518 0.0638833 255 255 255
-0.00462523 0.00701731 0.0551655 255 255 255
0.00112896 0.00652369 0.0543033 255 255 255
0.00667294 0.00649371 0.0529386 255 255 255
0.00488554 -0.00659123 0.0664254 255 255 255
-0.00200182 0.000249571 0.0654533 255 255 255
0.000902482 0.00520187 0.0552711 255 255 255
0.00182307 -0.00453558 0.0637852 255 255 255
0.0111663 -0.000803917 0.0623946 255 255 255
0.0111663 -0.000803917 0.0623946 255 255 255
0.00468455 -0.00106211 0.0611346 255 255 255
-0.00805528 0.00503752 0.0571158 255 255 255
-0.00408675 -0.00787614 0.0687279 255 255 255
-0.00445796 -0.00207971 0.0637345 255 255 255
-0.00276463 -0.00213638 0.0637389 255 255 255
-0.00327662 -0.00149535 0.0635409 255 255 255
-0.0052708 0.000565498 0.0651143 255 255 255
1.17655e-05 -0.00114019 0.0614053 255 255 255
0.00381472 -0.000944533 0.0612675 255 255 255
0.00381472 -0.000944533 0.0612675 255 255 255
9.18436e-05 0.000430251 0.0623907 255 255 255
-0.00589782 0.00308249 0.059057 255 255 255
-0.00760377 0.00501417 0.056666 255 255 255
-0.00456139 0.00448152 0.0562426 255 255 255
-0.00410373 0.00427466 0.0561242 255 255 255
-0.00229757 0.00333148 0.0556329 255 255 255
-0.00301531 0.00541821 0.0560444 255 255 255
-0.00176611 0.00522337 0.0558199 255 255 255
-0.00750467 0.00721372 0.0594519 255 255 255
-0.00461168 0.00631878 0.0556204 255 255 255
-0.00293477 0.00629105 0.0551698 255 255 255
0.00109984 0.00673225 0.0538512 255 255 255
0.00556528 0.00931144 0.0521831 255 255 255
-0.00439277 -0.0053082 0.0663455 255 255 255
-0.00235014 -0.00429387 0.0650604 255 255 255
-0.00208274 -0.00409086 0.0650324 255 255 255
0.00565659 -0.00626901 0.0668677 255 255 255
-0.000491692 -0.00194213 0.0634181 255 255 255
-0.004739 0.00083275 0.064705 255 255 255
-0.00467506 0.0012109 0.0649333 255 255 255
-0.00390515 0.00209238 0.0613661 255 255 255
0.00726931 -0.000271005 0.0611949 255 255 255
-0.0019452 0.00250324 0.0587149 255 255 255
0.00787686 0.000963885 0.0642544 255 255 255
-0.00645615 0.00512359 0.0564894 255 255 255
-0.00307137 0.00556732 0.0557897 255 255 255
-0.000687895 0.00448941 0.0556097 255 255 255
-0.00673684 0.0101074 0.063398 255 255 255
-0.0028581 0.00752711 0.0543616 255 255 255
0.000207313 0.0072403 0.0539334 255 255 255
0.00346057 0.00628468 0.0539246 255 255 255
0.0053132 0.00596399 0.053862 255 255 255
0.00625965 0.00591623 0.0536856 255 255 255
-0.00170201 0.00850204 0.0538076 255 255 255
-0.00150942 0.00887134 0.0543822 255 255 255
0.0031012 0.00784576 0.0535132 255 255 255
-0.00141277 0.00928058 0.0552108 255 255 255
-0.00271851 -0.00678955 0.0672638 255 255 255
0.000952213 -0.00593283 0.0667128 255 255 255
0.00969565 -0.00168525 0.0636139 255 255 255
-0.00414024 0.00266705 0.0590136 255 255 255
-0.00101261 0.00198578 0.0606453 255 255 255
-0.00104671 0.0029274 0.0554872 255 255 255
-0.00518387 0.00441558 0.0563061 255 255 255
0.00999688 0.00145987 0.0599607 255 255 255
-0.00860627 0.00637201 0.0603212 255 255 255
-0.00749289 0.00581429 0.0565935 255 255 255
-0.00195827 0.00459308 0.0558293 255 255 255
-0.00720857 0.00609942 0.0563493 255 255 255
0.00158114 0.00428157 0.0553164 255 255 255
0.00195479 0.00465554 0.0553794 255 255 255
0.000663782 0.00547081 0.0552583 255 255 255
0.000793758 0.00552442 0.0550901 255 255 255
0.00451091 0.00628657 0.0538243 255 255 255
0.00647216 0.00646372 0.0530813 255 255 255
0.00807187 0.00693469 0.0519439 255 255 255
0.00486112 0.00869308 0.0545991 255 255 255
0.00631544 0.00828067 0.0526462 255 255 255
0.0064499 0.00889097 0.0515243 255 255 255
-0.00231611 -0.00679221 0.0674804 255 255 255
-0.00449134 -0.00552262 0.066418 255 255 255
-0.0036371 -0.00564458 0.0666658 255 255 255
-0.0030171 -0.00443924 0.0658664 255 255 255
-0.00334784 -0.0035201 0.06467 255 255 255
-0.00167238 -0.00299794 0.0640791 255 255 255
-0.00834338 -1.16941e-05 0.0633255 255 255 255
0.00645306 -0.000701189 0.061326 255 255 255
-0.00921931 0.00417035 0.0573148 255 255 255
-0.00719624 0.00536038 0.0566601 255 255 255
-0.00257366 0.0057518 0.0555576 255 255 255
-0.00377624 0.00685074 0.054887 255 255 255
0.00546949 0.00473436 0.0547271 255 255 255
0.00158747 0.00759519 0.0530058 255 255 255
-0.00712629 0.0100543 0.0537252 255 255 255
0.00622916 0.00849636 0.0526557 255 255 255
-0.00123767 0.00200112 0.060625 255 255 255
0.00913503 0.00117378 0.0642359 255 255 255
0.00632962 0.00345317 0.0547062 255 255 255
-0.00134663 0.00588182 0.0552816 255 255 255
-0.00142559 0.00638243 0.0549426 255 255 255
0.00264193 0.00673153 0.0535626 255 255 255
0.00264193 0.00673153 0.0535626 255 255 255
0.00427075 0.00873396 0.0552078 255 255 255
0.00607009 0.000232022 0.0614571 255 255 255
0.00698913 -0.00051151 0.0614281 255 255 255
7.67345e-05 0.00190215 0.0610121 255 255 255
0.00119083 -0.0038358 0.0636551 255 255 255
-0.00102948 0.00753286 0.0539768 255 255 255
7.91504e-05 0.00850473 0.0531497 255 255 255
0.00737994 -0.00195 0.063195 255 255 255
-0.00362372 -0.00737849 0.0673464 255 255 255
-0.00323007 -0.00532754 0.0665115 255 255 255
-0.000847645 -0.00645955 0.0679269 255 255 255
0.00373976 -0.00573398 0.0648285 255 255 255
-0.00635115 -0.00163507 0.0636407 255 255 255
-0.000630309 -0.00335611 0.0642982 255 255 255
-0.00758276 -0.000707041 0.0632494 255 255 255
-0.00500451 -0.00114168 0.0665325 255 255 255
-0.00358663 -0.00136288 0.0637057 255 255 255
0.000523516 -3.57643e-05 0.0620683 255 255 255
0.000858918 0.000175026 0.062003 255 255 255
-0.00425502 0.00250287 0.0615138 255 255 255
-0.000855852 0.00107761 0.0622157 255 255 255
-0.00135599 0.00208939 0.0605057 255 255 255
0.0101471 -0.000727046 0.0624611 255 255 255
0.011484 -0.00138108 0.0625601 255 255 255
0.0110375 -0.000932429 0.0626755 255 255 255
-0.00606403 0.00339646 0.0562253 255 255 255
0.0116988 -0.000654942 0.0624314 255 255 255
0.00896453 0.000642425 0.0607283 255 255 255
-0.000758741 0.00458503 0.0557458 255 255 255
-0.00688713 0.00650935 0.0559597 255 255 255
-0.00455448 0.00601295 0.0558198 255 255 255
-0.00356245 0.00597534 0.0554678 255 255 255
-0.000170824 0.00495842 0.0556847 255 255 255
0.00266893 0.00372007 0.055138 255 255 255
-0.00770588 0.00766691 0.0551793 255 255 255
-0.00394807 0.0069346 0.0550066 255 255 255
4.6051e-05 0.00757441 0.0537811 255 255 255
0.00707543 0.00596712 0.0533076 255 255 255
0.00581551 0.00658033 0.0531267 255 255 255
1.34361e-05 0.00890038 0.0534426 255 255 255
-0.000525025 0.00957107 0.0526657 255 255 255
-0.000102797 0.0125959 0.057235 255 255 255
-0.00706981 -0.00119632 0.0635179 255 255 255
0.00176191 -0.00353246 0.0629581 255 255 255
-0.000419672 -0.00244654 0.0633439 255 255 255
-0.000343505 -0.00133896 0.0631824 255 255 255
-0.00117615 0.00103008 0.0625318 255 255 255
-0.00113905 0.0012626 0.0620001 255 255 255
0.00794691 0.00114547 0.0640853 255 255 255
-0.0055683 0.00628366 0.0558574 255 255 255
-0.00284782 0.00561958 0.0556695 255 255 255
0.0031812 0.00412521 0.0550778 255 255 255
0.00510048 0.00396331 0.0547793 255 255 255
-0.00729839 0.00896253 0.0626327 255 255 255
0.00381917 0.00485097 0.0548773 255 255 255
0.0042621 0.00676483 0.053442 255 255 255
0.00628685 0.00646601 0.0531428 255 255 255
0.00476489 0.00874805 0.0548303 255 255 255
-0.00393516 -0.00549324 0.0665838 255 255 255
-0.0043336 -0.00470907 0.066763 255 255 255
0.00184465 -0.00321947 0.0627661 255 255 255
-0.00538998 0.000166961 0.0656496 255 255 255
0.000143321 -0.00131045 0.0629667 255 255 255
0.0017824 -0.00218968 0.0624993 255 255 255
0.00160364 0.000470722 0.0624428 255 255 255
0.00126163 0.000763981 0.0623457 255 255 255
-0.00818155 0.00487938 0.0568 255 255 255
-0.00733583 0.00704223 0.0556778 255 255 255
0.000654792 0.00547334 0.0552453 255 255 255
-0.000596151 0.00604388 0.054953 255 255 255
-0.000595165 0.00604594 0.0549525 255 255 255
-0.00505802 0.00856469 0.0536911 255 255 255
0.00039888 0.0126175 0.0567601 255 255 255
-0.0056959 -0.00149897 0.0637215 255 255 255
0.0104 -0.000825158 0.0624046 255 255 255
-0.000302674 0.0029636 0.0554224 255 255 255
-0.00234639 0.00531118 0.0558857 255 255 255
-0.00698163 0.00713063 0.0554182 255 255 255
-0.00423001 0.00626271 0.0555621 255 255 255
0.00491664 0.00784151 0.0527012 255 255 255
0.000215605 0.0125003 0.0569382 255 255 255
-0.00212493 -0.00540337 0.0665716 255 255 255
0.000716907 -0.000447589 0.0625211 255 255 255
0.00497672 -0.000163832 0.0614839 255 255 255
-0.00400322 0.00325678 0.0559407 255 255 255
-0.00148069 0.00473075 0.0557593 255 255 255
0.00166128 0.00599114 0.0545673 255 255 255
0.00527957 0.00571807 0.0539667 255 255 255
-0.00187488 0.00786431 0.0537446 255 255 255
-0.00113379 0.00804669 0.0531268 255 255 255
0.00310712 0.00700791 0.0535162 255 255 255
-0.00675992 0.0117149 0.0582191 255 255 255
0.00089756 -0.0051566 0.0660972 255 255 255
0.00625924 0.000554137 0.063636 255 255 255
0.00230356 0.00615944 0.0543031 255 255 255
0.00514634 0.00648291 0.0532963 255 255 255
-0.00270203 -0.00239409 0.0637222 255 255 255
-0.00127542 0.00632615 0.054968 255 255 255
-0.00859005 0.00455278 0.0567721 255 255 255
-0.00380439 -0.00680125 0.0669867 255 255 255
-0.0037264 -0.00587688 0.0666199 255 255 255
0.00171127 -0.00672828 0.0660661 255 255 255
-0.00237632 -0.00414888 0.0650652 255 255 255
-2.99377e-05 -0.00501904 0.0666251 255 255 255
-0.00572523 -0.000922832 0.0663607 255 255 255
-0.00344997 -0.00180872 0.0636104 255 255 255
0.00272536 -0.00315073 0.0623655 255 255 255
-0.000444872 -0.000358051 0.0633384 255 255 255
0.00718943 -0.00323937 0.064032 255 255 255
0.00481123 -0.00213052 0.062025 255 255 255
0.00483737 -0.00174956 0.0618183 255 255 255
-0.00245226 0.00267884 0.0586185 255 255 255
-0.00154889 0.00642015 0.0549213 255 255 255
-0.000689153 0.0064736 0.054584 255 255 255
-0.00145622 0.00713513 0.0542742 255 255 255
-0.000784866 0.00736188 0.0540412 255 255 255
-0.000755008 0.00958635 0.0528685 255 255 255
-0.0061883 0.0131505 0.0578039 255 255 255
-0.00522392 -0.00540141 0.0668793 255 255 255
0.00105578 -0.00602503 0.0667452 255 255 255
0.00293827 -0.00628268 0.064924 255 255 255
-0.00343186 -0.00095657 0.0656351 255 255 255
-0.00207552 -0.00171425 0.0639092 255 255 255
-0.00577445 0.00279115 0.0607079 255 255 255
-0.00811745 0.00357374 0.0565179 255 255 255
0.00593687 -0.000124856 0.061238 255 255 255
0.0111809 -0.00135732 0.0627463 255 255 255
-0.000464878 0.00405339 0.0555889 255 255 255
-0.00101168 0.00453427 0.0556378 255 255 255
0.000281019 0.00446525 0.055463 255 255 255
-0.00405279 0.00624648 0.0554706 255 255 255
-0.00770854 0.00784687 0.0552109 255 255 255
-0.00101591 0.00736037 0.054093 255 255 255
-0.00168489 0.00822253 0.0537304 255 255 255
0.00640871 0.00664764 0.0529735 255 255 255
-0.00600605 0.0131135 0.057667 255 255 255
-0.000285648 0.00980833 0.0523168 255 255 255
0.00543814 0.0094098 0.0546094 255 255 255
0.000293033 0.0128265 0.0567239 255 255 255
-0.000155003 -5.09578e-05 0.0628984 255 255 255
-0.00324584 0.00314715 0.055818 255 255 255
-0.00107021 0.00491712 0.0557855 255 255 255
-0.00244991 0.00606267 0.0553282 255 255 255
-0.0016772 0.00569342 0.0554407 255 255 255
-0.000679606 0.00569029 0.0553443 255 255 255
0.00157971 0.00500356 0.0552846 255 255 255
-0.000778443 0.00601411 0.0550591 255 255 255
-0.00412949 0.00752173 0.0545944 255 255 255
-0.00227952 0.00688794 0.0547687 255 255 255
0.006999 0.00460501 0.0544326 255 255 255
0.000100096 -0.00726293 0.0681646 255 255 255
-0.00362857 -0.00393172 0.0673499 255 255 255
-0.0021583 -0.00301331 0.0643061 255 255 255
-0.00555333 -0.000594575 0.0661608 255 255 255
-0.00580301 0.00609735 0.055861 255 255 255
-0.00706564 0.0111423 0.0583501 255 255 255
-0.00132494 0.00950555 0.055144 255 255 255
0.00505577 0.00811607 0.0526758 255 255 255
-0.00369114 -0.000807532 0.0660336 255 255 255
-0.00495216 0.000951164 0.0649913 255 255 255
-0.00262434 0.00197275 0.0609197 255 255 255
-0.000428738 0.00178715 0.0609856 255 255 255
-0.00292058 0.00314681 0.0557604 255 255 255
-0.00673499 0.00728146 0.0553818 255 255 255
-0.00676273 0.0117167 0.0582144 255 255 255
0.00491643 0.00783548 0.052702 255 255 255
-0.00424503 0.00671823 0.055351 255 255 255
0.00431144 0.00690482 0.0533131 255 255 255
-8.69682e-05 -0.00592939 0.0674128 255 255 255
-0.00739014 0.00909709 0.054507 255 255 255
0.00210595 0.000569842 0.0628167 255 255 255
-0.00278496 0.00501178 0.0560172 255 255 255
-0.0070783 0.00718901 0.055371 255 255 255
0.00422489 -0.00203858 0.0617804 255 255 255
-0.000431751 0.00109098 0.0624513 255 255 255
-0.00300467 0.0068364 0.0547297 255 255 255
-0.0062272 0.00767951 0.0548878 255 255 255
-0.000487684 0.00651663 0.0545575 255 255 255
-0.00200744 -0.00294213 0.0642253 255 255 255
-0.00390266 -0.00181931 0.063649 255 255 255
-0.0411404 0.0240178 0.152815 255 255 255
-0.00479129 0.00328412 0.0560354 255 255 255
-0.000118227 0.00721448 0.0539308 255 255 255
-0.000980863 0.0130779 0.0496561 255 255 255
0.000142307 0.012688 0.049672 255 255 255
-0.00503756 0.000609441 0.0652161 255 255 255
-0.000570388 0.0124738 0.0500746 255 255 255
-0.000328126 0.0124321 0.0501103 255 255 255
-0.000355483 0.0129821 0.049462 255 255 255
-0.00104027 0.0127446 0.050029 255 255 255
0.000231072 0.0127853 0.0494867 255 255 255
-0.00181013 0.00476054 0.0557831 255 255 255
0.00394239 -0.000967314 0.0612424 255 255 255
0.00313041 0.00499215 0.0549132 255 255 255
-0.00197625 0.0071925 0.0543683 255 255 255
-0.00252555 -0.00299891 0.064241 255 255 255
-0.00223717 -0.00180998 0.063852 255 255 255
0.000537434 0.00393921 0.0553792 255 255 255
-0.00241247 -0.00438441 0.0652058 255 255 255
-0.00702238 -0.00102658 0.0634959 255 255 255
9.69205e-05 0.00326819 0.0553072 255 255 255
-0.00166745 0.0050993 0.0558967 255 255 255
-0.00634406 0.00756928 0.0549402 255 255 255
-0.00603915 0.00549726 0.0565337 255 255 255
-0.00635726 0.00553776 0.0565825 255 255 255
0.00469209 0.00353378 0.0548419 255 255 255
-0.00433626 0.00748682 0.0546748 255 255 255
-0.00616747 0.00732862 0.0549143 255 255 255
0.00906598 0.00129174 0.0605378 255 255 255
0.00631063 -0.000229477 0.0611812 255 255 255
0.00187374 -0.00640032 0.0658422 255 255 255
-0.00311241 -0.000720558 0.0653786 255 255 255
-0.00522414 0.00746343 0.0548116 255 255 255
-0.000399069 0.00705795 0.0541014 255 255 255
0.000406671 0.00806431 0.0528589 255 255 255
-0.000773758 0.0121654 0.0508894 255 255 255
-0.000773758 0.0121654 0.0508894 255 255 255
-0.000858966 0.0126897 0.0499542 255 255 255
-0.000495993 0.0127494 0.0497231 255 255 255
-0.00485582 0.00310479 0.0560605 255 255 255
-0.00519123 -0.00532353 0.067099 255 255 255
-0.00512094 -0.00541995 0.066174 255 255 255
-0.00234899 -0.00749984 0.0678044 255 255 255
-0.00235378 -0.00428249 0.0650448 255 255 255
0.00181815 -0.00639381 0.0657853 255 255 255
-0.00722701 -0.000927485 0.063404 255 255 255
-0.000573339 -0.00359949 0.0637398 255 255 255
-0.00396906 -0.00140251 0.0637845 255 255 255
-0.00267493 -0.00188944 0.0637035 255 255 255
-0.00239255 -0.00228182 0.0638054 255 255 255
-0.00158766 -0.00281082 0.0639691 255 255 255
-0.00158259 -0.00191189 0.0639177 255 255 255
-0.000188989 -0.00237387 0.0626435 255 255 255
-2.36786e-05 -0.00215006 0.0625458 255 255 255
0.00293939 -0.00292188 0.0622382 255 255 255
0.000198483 -0.000625088 0.0630041 255 255 255
0.00306122 -0.00138955 0.0615972 255 255 255
0.00306198 -0.00138949 0.0615987 255 255 255
-0.0083794 0.00359525 0.0565752 255 255 255
-0.000849048 0.00126683 0.0621225 255 255 255
2.18816e-05 0.000695907 0.0620259 255 255 255
4.0981e-05 0.00163 0.0610598 255 255 255
-0.00753431 0.00781807 0.056611 255 255 255
0.000131483 0.00453638 0.0555522 255 255 255
0.000275955 0.00446988 0.0554591 255 255 255
-0.00693846 0.00869585 0.0599656 255 255 255
-0.00609808 0.00753732 0.0549325 255 255 255
-0.00629995 0.00720258 0.0549404 255 255 255
-0.000138122 0.00547626 0.0553253 255 255 255
-0.00565256 0.00760543 0.054834 255 255 255
-0.00451542 0.00751183 0.0546764 255 255 255
0.00373372 0.00474751 0.0551037 255 255 255
0.00412557 0.00473847 0.0549495 255 255 255
-0.00304651 0.00741547 0.0544476 255 255 255
-0.00225025 0.00721081 0.0544286 255 255 255
0.00130582 0.00634706 0.054416 255 255 255
0.00736258 0.00378503 0.0544539 255 255 255
-0.00662636 0.011798 0.0607783 255 255 255
0.00420731 0.00542816 0.0543459 255 255 255
0.00224539 0.00681797 0.0537765 255 255 255
0.00573214 0.00652829 0.0532304 255 255 255
0.00754437 0.00588261 0.0534522 255 255 255
-0.000607925 0.0095027 0.0527687 255 255 255
-0.00580966 0.0130972 0.0576031 255 255 255
-0.00544009 0.0129257 0.0576067 255 255 255
-0.00096453 0.010175 0.0531405 255 255 255
0.00662865 0.00824838 0.0518854 255 255 255
-0.00176525 -0.0076091 0.0674326 255 255 255
-0.00394808 -0.00549986 0.0665711 255 255 255
-0.00293048 -0.00476392 0.0659754 255 255 255
-0.000107738 -0.00658812 0.0677382 255 255 255
-0.00378282 -0.00308863 0.0645424 255 255 255
0.00313221 -0.00610325 0.0648095 255 255 255
-0.00340502 -0.00145491 0.0635474 255 255 255
-0.0022699 -0.00180427 0.0639603 255 255 255
-0.00368308 -0.000327226 0.0659413 255 255 255
-0.000803935 0.000222303 0.0642559 255 255 255
0.00234633 -0.00154621 0.0620226 255 255 255
0.000275554 0.000123186 0.0622919 255 255 255
-0.00347188 0.00201444 0.060921 255 255 255
-0.00777816 0.00505867 0.0566465 255 255 255
0.00704965 -4.96585e-05 0.061089 255 255 255
-0.00316044 0.00425554 0.0560005 255 255 255
-0.00744844 0.00741697 0.0597425 255 255 255
-0.00417793 0.00561265 0.0560003 255 255 255
-0.00355463 0.00544066 0.0560324 255 255 255
-0.00754141 0.00712285 0.0556692 255 255 255
-0.00382467 0.00608607 0.0555734 255 255 255
-0.00420271 0.00737538 0.0546724 255 255 255
0.000418188 0.0056428 0.0551018 255 255 255
0.00196708 0.00512164 0.0551495 255 255 255
-0.00173544 0.00740289 0.0542181 255 255 255
-0.000825076 0.00709828 0.0541843 255 255 255
0.00132946 0.0069106 0.0538997 255 255 255
0.00170222 0.00687458 0.0538242 255 255 255
0.00518268 0.0056742 0.0541049 255 255 255
0.00136965 0.00714549 0.0538041 255 255 255
0.00627339 0.00550155 0.0540033 255 255 255
0.00627434 0.00550158 0.0540009 255 255 255
0.00462726 0.00764415 0.0532408 255 255 255
-0.00095606 0.0100599 0.0533734 255 255 255
0.00583616 0.00842743 0.0529424 255 255 255
0.0079962 0.00692948 0.0518553 255 255 255
0.00635056 0.0083541 0.0524312 255 255 255
-0.00460017 -0.00698175 0.067797 255 255 255
-0.00321175 -0.00462673 0.0677111 255 255 255
0.00256196 -0.00776534 0.0674109 255 255 255
-0.0037945 -0.00383164 0.0675343 255 255 255
0.00268753 -0.00749512 0.0668704 255 255 255
-0.00504582 -0.00176871 0.0636288 255 255 255
-0.00208519 -0.00255656 0.0639843 255 255 255
-0.00726442 0.00632773 0.0561598 255 255 255
-0.00701101 0.00888071 0.059632 255 255 255
-0.004932 0.00685415 0.05532 255 255 255
-0.00493083 0.00685288 0.0553225 255 255 255
-6.60411e-05 0.00514808 0.0555498 255 255 255
0.0011145 0.00448513 0.0553914 255 255 255
0.000787982 0.00549427 0.0550636 255 255 255
0.00063204 0.0059647 0.0548679 255 255 255
-0.00285312 0.00726193 0.0544843 255 255 255
-0.00706036 0.0116852 0.0582395 255 255 255
-0.0014723 0.00896465 0.0547965 255 255 255
0.00597887 0.00620492 0.0535522 255 255 255
-0.000433497 0.00898097 0.0537653 255 255 255
-0.0062294 0.0128286 0.0587755 255 255 255
0.0047158 0.00751906 0.0530574 255 255 255
0.00607889 -0.00088237 0.0613811 255 255 255
0.00547242 0.00612367 0.0535924 255 255 255
0.00665083 0.0073522 0.0520338 255 255 255
-0.00569523 0.0134646 0.0572759 255 255 255
-0.0041425 -0.00747707 0.0677109 255 255 255
-0.00373832 -0.00134098 0.0653106 255 255 255
0.000308566 0.000321541 0.0623417 255 255 255
-0.00756947 0.0097437 0.0650565 255 255 255
0.00132297 0.00386837 0.0553418 255 255 255
-0.00461103 0.00701105 0.0551353 255 255 255
-0.00659822 0.0112335 0.0612615 255 255 255
-0.00426389 -0.0015499 0.0637294 255 255 255
0.00394317 -0.000829528 0.0612315 255 255 255
0.00869184 -0.000350626 0.0616764 255 255 255
-0.00762121 0.00597531 0.0567955 255 255 255
0.000169628 0.00361997 0.055571 255 255 255
-0.00653297 0.00999956 0.0633243 255 255 255
-0.0068771 0.00886446 0.0604599 255 255 255
-0.00555666 0.00710555 0.0552837 255 255 255
-0.00801792 0.00837805 0.0544497 255 255 255
-0.00263713 0.00662612 0.0547764 255 255 255
-0.000882602 0.00587469 0.0552078 255 255 255
-0.00239841 0.00713985 0.0544254 255 255 255
-0.00839463 0.00398969 0.0565111 255 255 255
-0.00630239 0.00751589 0.054919 255 255 255
0.00427034 0.00433473 0.0549891 255 255 255
-0.00045294 0.00908803 0.0533495 255 255 255
0.00556921 -1.50633e-05 0.0620421 255 255 255
0.00630655 0.0094515 0.0522153 255 255 255
