ply
format ascii 1.0
element vertex 1124
property float x
property float y
property float z
property uchar red
property uchar green
property uchar blue
end_header
-0.0152927 -0.0216954 0.213781 255 255 255
-0.0357294 -0.0363671 0.163305 255 255 255
-0.0357294 -0.0363671 0.163305 255 255 255
-0.038911 0.0077056 0.280584 255 255 255
-0.0277078 0.007639 0.28553 255 255 255
0.0472624 -0.0199856 0.233232 255 255 255
0.01667 0.00257396 0.258077 255 255 255
0.0713891 -0.015444 0.236483 255 255 255
0.00443362 -0.0113934 0.215858 255 255 255
0.0300903 -0.00591193 0.234804 255 255 255
0.0290292 -0.00198342 0.235128 255 255 255
0.0299473 -0.00880444 0.222686 255 255 255
-0.0269024 -0.0156526 0.182413 255 255 255
-0.0257064 -0.0152047 0.180619 255 255 255
0.0220454 0.00656178 0.244737 255 255 255
0.0449364 -0.00254202 0.22569 255 255 255
-0.0422459 -0.0161526 0.167688 255 255 255
-0.0249017 -0.0134066 0.173712 255 255 255
-0.0222629 -0.00126484 0.196764 255 255 255
-0.0015899 -0.000825643 0.207376 255 255 255
0.0436216 0.00160447 0.221885 255 255 255
-0.0222635 -0.0114083 0.170346 255 255 255
0.0243772 0.0214171 0.249349 255 255 255
0.0271153 0.0147484 0.239308 255 255 255
0.00580846 0.0356506 0.268733 255 255 255
0.0784826 0.0114429 0.234698 255 255 255
-0.0255917 -0.0340573 0.112136 255 255 255
-0.0255893 -0.0340564 0.112138 255 255 255
0.0485527 0.0211413 0.228379 255 255 255
-0.0451504 -0.00766338 0.148742 255 255 255
-0.0158404 -0.00675729 0.156701 255 255 255
-0.0217708 0.0382822 0.234703 255 255 255
0.0485556 0.0292254 0.230652 255 255 255
-0.0250894 0.0402665 0.21917 255 255 255
-0.0229883 0.0394998 0.218334 255 255 255
-0.0237 -0.00328085 0.139103 255 255 255
-0.0221225 -0.00064408 0.130925 255 255 255
-0.0352385 -0.0146685 0.105764 255 255 255
-0.0359784 0.000217816 0.124664 255 255 255
-0.0359898 0.000214539 0.124649 255 255 255
-0.0303919 -0.000146628 0.127323 255 255 255
-0.0305303 0.00105765 0.123252 255 255 255
-0.0271209 0.000660636 0.125625 255 255 255
-0.0279421 0.00107462 0.124323 255 255 255
-0.0240875 0.00150188 0.123293 255 255 255
-0.0226388 0.00134419 0.124107 255 255 255
-0.0271717 -0.06192 0.158293 255 255 255
-0.0228812 -0.0322438 0.263666 255 255 255
0.0380142 -0.0371289 0.267156 255 255 255
0.0376391 -0.0317821 0.269673 255 255 255
-0.0144521 -0.0169016 0.211161 255 255 255
0.0360131 -0.031 0.270822 255 255 255
0.0462294 -0.0324346 0.239821 255 255 255
0.0503268 -0.0258571 0.235553 255 255 255
0.0252721 -0.0220143 0.229891 255 255 255
0.0548147 -0.0240474 0.234871 255 255 255
-0.0149363 -0.0170378 0.210826 255 255 255
0.068689 -0.0156696 0.235995 255 255 255
-0.0465983 -0.026325 0.163547 255 255 255
0.0224666 0.000424268 0.243892 255 255 255
0.0488135 -0.011131 0.227626 255 255 255
-0.0484375 -0.0182608 0.165486 255 255 255
0.055976 -0.00556942 0.227826 255 255 255
0.0210858 0.0135779 0.249773 255 255 255
0.0392046 -0.00104276 0.220391 255 255 255
-0.0245746 0.0390673 0.245715 255 255 255
0.045619 0.0190722 0.22985 255 255 255
-0.0442385 -0.0163066 0.136112 255 255 255
0.0250777 0.0251743 0.22807 255 255 255
-0.0452235 -0.00599732 0.142688 255 255 255
-0.035881 -0.0054009 0.143681 255 255 255
-0.0276203 -0.00296767 0.137241 255 255 255
-0.0377907 -0.0127443 0.111037 255 255 255
-0.0361259 -0.000467725 0.12647 255 255 255
-0.0308589 -1.18247e-05 0.126941 255 255 255
-0.0393749 0.000708243 0.121538 255 255 255
-0.0334932 0.00090048 0.122791 255 255 255
-0.0319287 0.000940393 0.122788 255 255 255
-0.0289411 0.00110466 0.123207 255 255 255
-0.0279232 0.00110945 0.123597 255 255 255
-0.0279191 0.00117462 0.123727 255 255 255
-0.0273815 0.00101118 0.123926 255 255 255
-0.0242979 0.00137702 0.123811 255 255 255
-0.0273986 -0.083699 0.0642423 255 255 255
-0.027421 -0.0836822 0.0642932 255 255 255
-0.0294753 -0.061922 0.157727 255 255 255
-0.0288969 -0.0766245 0.073524 255 255 255
0.0208877 -0.0324745 0.235847 255 255 255
0.0312317 -0.0320866 0.241632 255 255 255
-0.0238728 -0.0291446 0.218919 255 255 255
-0.0248222 -0.0777384 0.0551504 255 255 255
-0.0374039 -0.0422538 0.161221 255 255 255
0.0202848 -0.0115311 0.253573 255 255 255
-0.0265934 -0.0718721 0.0649365 255 255 255
0.0153198 -0.0180954 0.223104 255 255 255
-0.0403516 -0.0509241 0.116514 255 255 255
-0.0455102 -0.0455365 0.147484 255 255 255
-0.0447152 -0.0303722 0.162789 255 255 255
-0.034009 -0.0553321 0.094229 255 255 255
0.0288505 -0.00751233 0.221259 255 255 255
0.035839 -0.00585983 0.225226 255 255 255
0.0320399 9.59258e-05 0.231579 255 255 255
0.0584108 -0.00270019 0.229129 255 255 255
0.0224939 -0.000498774 0.2166 255 255 255
0.0362042 5.86087e-05 0.228869 255 255 255
0.0572535 -0.00163583 0.225479 255 255 255
0.0173692 -6.79995e-05 0.211873 255 255 255
0.0675736 0.00429171 0.230845 255 255 255
0.0699411 0.00206018 0.231327 255 255 255
-0.0291708 -0.0107966 0.173041 255 255 255
-0.0290988 -0.0100279 0.166837 255 255 255
0.0258296 0.0213841 0.243281 255 255 255
-0.0478843 -0.0104951 0.15739 255 255 255
-0.0320588 -0.0348061 0.109863 255 255 255
-0.0328762 -0.034407 0.110346 255 255 255
0.0489724 0.0155894 0.223752 255 255 255
0.00242522 0.0367616 0.244345 255 255 255
-0.0389521 -0.0210592 0.112179 255 255 255
-0.0334663 0.000197551 0.125193 255 255 255
-0.0313718 1.06398e-05 0.12784 255 255 255
-0.0250441 -0.000192285 0.128588 255 255 255
-0.0250663 -0.000100092 0.128768 255 255 255
-0.0400824 0.000623036 0.121659 255 255 255
-0.0360132 0.000802146 0.121705 255 255 255
-0.0360049 0.000796132 0.121673 255 255 255
-0.0236621 0.00136839 0.123797 255 255 255
-0.0365882 -0.0594154 0.157068 255 255 255
0.0408941 -0.0379855 0.26391 255 255 255
0.0656607 -0.0277004 0.247784 255 255 255
0.029789 -0.0183182 0.241663 255 255 255
0.0342068 -0.0152694 0.234787 255 255 255
0.05238 -0.0162781 0.232609 255 255 255
-0.0417112 0.00515858 0.24272 255 255 255
-0.0221292 0.00203659 0.243541 255 255 255
0.0221437 0.000565894 0.244016 255 255 255
0.0531491 -0.00813646 0.226262 255 255 255
-0.0188839 0.00570703 0.203787 255 255 255
0.0599352 0.00541459 0.228674 255 255 255
-0.0412344 -0.0110452 0.160859 255 255 255
0.0284863 0.0108675 0.221667 255 255 255
0.0285009 0.0108815 0.221699 255 255 255
0.0726868 0.0163695 0.235214 255 255 255
-0.0266898 -0.00457529 0.142693 255 255 255
-0.0369554 -0.000607529 0.127217 255 255 255
-0.0340666 -0.000466568 0.127438 255 255 255
-0.0325415 -0.000448671 0.127398 255 255 255
-0.0341703 -0.0235382 0.0920743 255 255 255
-0.0381182 -4.02146e-05 0.124871 255 255 255
-0.0266134 0.0011834 0.122866 255 255 255
-0.0344672 -0.0675116 0.154933 255 255 255
-0.0196143 -0.0273196 0.267047 255 255 255
-0.0232522 -0.037039 0.223124 255 255 255
0.0695933 -0.0303802 0.255304 255 255 255
-0.0447905 -0.0107484 0.158793 255 255 255
-0.0130817 0.00599304 0.20097 255 255 255
-0.0469288 -0.0102561 0.156765 255 255 255
0.0295588 0.0294429 0.234172 255 255 255
-0.0192826 -0.0726817 0.0336429 255 255 255
-0.0348889 -0.000643155 0.128321 255 255 255
-0.040191 -0.0386843 0.116713 255 255 255
-0.0477462 -0.0108475 0.158033 255 255 255
0.00767927 0.0142665 0.216704 255 255 255
0.024354 0.028528 0.233921 255 255 255
-0.0325746 -0.0405545 0.0881542 255 255 255
-0.0225429 -0.00159067 0.133692 255 255 255
-0.0333211 0.000221496 0.127679 255 255 255
-0.0329764 -0.000318261 0.126517 255 255 255
0.00730375 -0.0310819 0.270331 255 255 255
-0.0336922 -0.000206116 0.127168 255 255 255
0.0388598 -0.0274528 0.239376 255 255 255
-0.0193819 0.00138885 0.202993 255 255 255
-0.0454084 -0.0714092 0.143613 255 255 255
-0.0269813 -0.0716535 0.0648156 255 255 255
-0.0201672 0.00471459 0.242487 255 255 255
-0.0460327 -0.0272639 0.143964 255 255 255
0.0375747 0.0115162 0.225389 255 255 255
0.0542724 0.0271684 0.23926 255 255 255
-0.0274742 -0.0633869 0.0676692 255 255 255
0.0127504 0.0253339 0.241408 255 255 255
-0.0351145 -0.000139903 0.125836 255 255 255
-0.0280232 -0.0829894 0.0709916 255 255 255
-0.0367793 -0.0369307 0.169565 255 255 255
0.0596688 -0.0244958 0.240509 255 255 255
0.0149808 0.0159435 0.255702 255 255 255
-0.0179797 -0.0790695 0.156476 255 255 255
-0.0284885 -0.0734008 0.154476 255 255 255
-0.0322934 -0.0649184 0.156053 255 255 255
-0.0315939 -0.0608883 0.157361 255 255 255
-0.0315939 -0.0608883 0.157361 255 255 255
-0.0281262 -0.081806 0.0714149 255 255 255
-0.0229434 -0.0334057 0.262324 255 255 255
0.0703104 -0.032687 0.273517 255 255 255
-0.0356248 -0.0538358 0.158377 255 255 255
0.033711 -0.0312721 0.239689 255 255 255
-0.0380209 -0.0492377 0.159172 255 255 255
-0.0161433 -0.0311019 0.222345 255 255 255
-0.0180371 -0.0293777 0.220076 255 255 255
0.0462284 -0.027117 0.237817 255 255 255
-0.039253 -0.0574172 0.12144 255 255 255
-0.0338324 -0.000986931 0.282186 255 255 255
0.0467631 -0.0245444 0.235465 255 255 255
-0.0340085 0.00396988 0.28294 255 255 255
0.059396 -0.0206521 0.237255 255 255 255
0.0593949 -0.0206521 0.23725 255 255 255
-0.0353114 0.00638564 0.281803 255 255 255
0.0239616 -0.0122499 0.245855 255 255 255
0.0398396 -0.0153338 0.231222 255 255 255
-0.0363066 -0.0307318 0.164903 255 255 255
0.0695183 -0.0118951 0.234087 255 255 255
0.01991 0.00903909 0.24985 255 255 255
0.02762 0.00237793 0.236371 255 255 255
0.0333731 -0.00564513 0.221518 255 255 255
-0.0135572 -0.00797846 0.205004 255 255 255
-0.0241218 -0.0139345 0.177099 255 255 255
0.0309831 0.00232224 0.21765 255 255 255
0.0415722 0.00665786 0.226171 255 255 255
0.0688418 0.0113159 0.232059 255 255 255
0.0688489 0.0113198 0.232077 255 255 255
-0.0480492 -0.0117948 0.161579 255 255 255
-0.0290568 -0.0116256 0.168302 255 255 255
0.0508333 0.0121674 0.22183 255 255 255
0.0554229 0.0129437 0.225783 255 255 255
0.0632049 0.0168444 0.232308 255 255 255
0.0622768 0.0172058 0.232636 255 255 255
0.044123 0.0267426 0.235082 255 255 255
0.0460535 0.028842 0.237233 255 255 255
0.0464522 0.0318626 0.233656 255 255 255
-0.0367455 -0.00755979 0.150808 255 255 255
-0.0238308 0.0318522 0.215218 255 255 255
-0.0404841 -0.00525609 0.141511 255 255 255
-0.0299632 0.0407944 0.215988 255 255 255
-0.037629 -0.0143781 0.113032 255 255 255
-0.0245807 -0.001128 0.131752 255 255 255
-0.0370084 -0.0675572 0.154273 255 255 255
-0.0281463 -0.0828151 0.0682438 255 255 255
-0.0245848 -0.0337205 0.259886 255 255 255
-0.021136 -0.0334978 0.265714 255 255 255
0.0536045 -0.0328548 0.260459 255 255 255
0.0318345 -0.0244447 0.237448 255 255 255
0.0701236 -0.0154721 0.236273 255 255 255
0.0154899 -0.0153134 0.222259 255 255 255
-0.0308796 -0.0145063 0.180573 255 255 255
0.0593557 0.00113275 0.227923 255 255 255
-0.0343108 -0.0133896 0.167963 255 255 255
-0.0177622 0.00280547 0.201215 255 255 255
0.0550356 0.0168866 0.229477 255 255 255
0.0095856 0.0152675 0.218029 255 255 255
0.0339092 0.0287575 0.232516 255 255 255
-0.0458753 -0.00828846 0.150341 255 255 255
-0.0397918 -0.0207626 0.119597 255 255 255
-0.0441323 -0.00603869 0.144113 255 255 255
-0.0256483 0.0393727 0.216915 255 255 255
-0.0350757 -0.00345754 0.137174 255 255 255
-0.0267207 -0.00336399 0.138704 255 255 255
-0.0279063 -0.00207222 0.134649 255 255 255
-0.0308679 -9.30789e-05 0.12683 255 255 255
0.0438724 -0.0373311 0.253434 255 255 255
0.0532137 -0.0316343 0.25279 255 255 255
0.0726375 -0.0232867 0.243272 255 255 255
-0.0344157 0.00664049 0.282795 255 255 255
0.022087 -0.0109 0.2438 255 255 255
0.0264596 -0.00859494 0.22996 255 255 255
0.0273137 3.8908e-05 0.236915 255 255 255
0.0322313 0.000291165 0.232219 255 255 255
-0.0104449 -0.00221859 0.203671 255 255 255
0.0162515 0.000552615 0.211678 255 255 255
0.0377825 0.00521584 0.221464 255 255 255
0.0377491 0.00512488 0.221253 255 255 255
-0.0302059 -0.0128432 0.168386 255 255 255
-0.0295432 -0.0103115 0.172237 255 255 255
-0.0366336 -0.00513159 0.142091 255 255 255
-0.036637 -0.00512777 0.14213 255 255 255
-0.0310579 -0.000478886 0.128324 255 255 255
-0.0383663 -0.0776046 0.15098 255 255 255
-0.0319052 -0.0630851 0.156838 255 255 255
0.00508301 -0.0325057 0.252533 255 255 255
0.0535143 -0.0326587 0.259661 255 255 255
0.0630287 -0.0327435 0.266982 255 255 255
0.0420137 -0.0313612 0.24968 255 255 255
0.0503018 -0.0321576 0.253838 255 255 255
0.0213669 -0.0315368 0.234792 255 255 255
0.0634915 -0.0261151 0.24478 255 255 255
0.0586207 -0.0226906 0.238823 255 255 255
0.0586632 -0.0226621 0.238872 255 255 255
0.0480118 -0.0145759 0.229655 255 255 255
0.0228196 0.00231045 0.242749 255 255 255
0.0418645 0.018963 0.229922 255 255 255
-0.0396156 -0.0220919 0.114091 255 255 255
-0.0211493 -0.00165266 0.134112 255 255 255
-0.0381821 -0.0737774 0.151735 255 255 255
-0.0228447 -0.0830309 0.0464501 255 255 255
0.0543249 -0.0159785 0.22978 255 255 255
0.0394088 -0.00486805 0.227662 255 255 255
-0.033852 -0.0753532 0.153479 255 255 255
-0.0288835 -0.0293778 0.256449 255 255 255
-0.0315372 -0.051162 0.160049 255 255 255
-0.0296753 -0.00615381 0.185129 255 255 255
-0.0303946 1.77908e-07 0.126168 255 255 255
-0.0297027 -0.0734055 0.154559 255 255 255
-0.0267826 -0.0704556 0.15587 255 255 255
-0.0318037 -0.0283625 0.166709 255 255 255
-0.0476498 -0.0179838 0.167629 255 255 255
-0.0246766 0.0394086 0.255918 255 255 255
-0.0261283 -0.0614262 0.0625467 255 255 255
-0.0422066 -0.059394 0.155083 255 255 255
-0.0242459 -0.0619456 0.0536672 255 255 255
-0.0262045 -0.00121051 0.132534 255 255 255
-0.0206441 -0.0797575 0.0378961 255 255 255
-0.0324119 -0.0617618 0.156993 255 255 255
-0.0162199 -0.0324854 0.266766 255 255 255
0.000677235 -0.0305387 0.270297 255 255 255
0.014011 -0.0318571 0.233868 255 255 255
0.0140142 -0.0318581 0.233873 255 255 255
0.0652868 -0.0309972 0.25476 255 255 255
-0.0189642 -0.0319057 0.221949 255 255 255
-0.00198438 -0.0134378 0.281196 255 255 255
0.0239466 -0.0211463 0.260365 255 255 255
0.0487629 -0.0286001 0.243599 255 255 255
0.0541894 -0.0296503 0.247167 255 255 255
0.0570785 -0.0254417 0.241325 255 255 255
0.0474134 -0.0213844 0.233744 255 255 255
-0.0249613 -0.0792276 0.0548492 255 255 255
0.0166698 -0.0145306 0.222174 255 255 255
0.0228185 -0.00888827 0.246324 255 255 255
0.0223196 -0.000388671 0.244236 255 255 255
0.0236456 0.00285273 0.24173 255 255 255
-0.0359624 -0.0224162 0.167444 255 255 255
0.0285626 0.00385891 0.23536 255 255 255
0.050981 -0.00608636 0.221442 255 255 255
-0.0254388 -0.0148059 0.179854 255 255 255
0.0352842 0.00244934 0.229354 255 255 255
-0.0194095 -0.000433095 0.198436 255 255 255
-0.0194316 -0.000482744 0.198321 255 255 255
-0.0181194 0.0011189 0.198889 255 255 255
0.0582335 0.0108429 0.22891 255 255 255
0.0449494 0.0128523 0.227001 255 255 255
0.0498833 0.0106928 0.22154 255 255 255
0.0610118 0.0157877 0.231921 255 255 255
0.0609999 0.0157189 0.231813 255 255 255
0.0632427 0.0128382 0.230796 255 255 255
-0.0383821 -0.0331767 0.117113 255 255 255
-0.0387618 -0.0318888 0.118232 255 255 255
-0.02907 -0.0100413 0.160811 255 255 255
-0.0251303 0.0390975 0.248673 255 255 255
0.042933 0.0267873 0.235449 255 255 255
0.0314378 0.0319737 0.236443 255 255 255
0.0188957 0.0343701 0.231729 255 255 255
0.0429393 0.040096 0.24676 255 255 255
-0.0366594 -0.0066691 0.14727 255 255 255
-0.0265747 0.0397842 0.217169 255 255 255
-0.0165136 0.0379271 0.219502 255 255 255
-0.0255957 -0.00316481 0.138451 255 255 255
-0.0333277 -0.00215646 0.13306 255 255 255
-0.0388056 -0.00121162 0.12841 255 255 255
-0.0388051 -0.00121332 0.128407 255 255 255
-0.0370882 -0.0013367 0.129638 255 255 255
-0.0371192 -0.00126467 0.129745 255 255 255
-0.0293761 -0.000890517 0.130158 255 255 255
-0.0380931 -0.0106491 0.111283 255 255 255
-0.0341312 -0.0691029 0.154533 255 255 255
-0.0357802 -0.0662399 0.154704 255 255 255
-0.034606 -0.0643969 0.155632 255 255 255
-0.0308174 -0.0325243 0.264837 255 255 255
0.0409691 -0.0339923 0.259401 255 255 255
0.042538 -0.0348313 0.252689 255 255 255
0.0323841 -0.0301821 0.239242 255 255 255
0.0335657 -0.0286584 0.239193 255 255 255
0.0482098 -0.0305749 0.242228 255 255 255
0.0648977 -0.0283584 0.248496 255 255 255
0.0391888 -0.026199 0.240812 255 255 255
0.061086 -0.0270845 0.245326 255 255 255
0.0746382 -0.0240876 0.244589 255 255 255
0.0204919 -0.000587151 0.247663 255 255 255
0.0204919 -0.000587151 0.247663 255 255 255
-0.0222603 -0.0821596 0.0443113 255 255 255
0.0211978 -0.000474287 0.246188 255 255 255
-0.0365711 -0.0184507 0.168381 255 255 255
-0.0167234 -0.00407686 0.203417 255 255 255
0.0265553 0.00734881 0.237775 255 255 255
0.0532432 -3.94156e-05 0.224612 255 255 255
0.0695953 0.00337583 0.231118 255 255 255
-0.0252291 -0.0101105 0.17498 255 255 255
0.0312408 0.0128208 0.233574 255 255 255
-0.0473484 -0.0122776 0.163506 255 255 255
0.0756164 0.0323188 0.249286 255 255 255
0.037027 0.0322322 0.235797 255 255 255
0.0423512 0.0337343 0.240969 255 255 255
-0.0152365 0.0334174 0.220736 255 255 255
-0.032472 -0.00359718 0.13608 255 255 255
-0.0243382 -0.00344264 0.139444 255 255 255
-0.0121871 -0.00195303 0.14239 255 255 255
-0.0405574 -0.00138073 0.128447 255 255 255
-0.0358756 -0.0145381 0.105691 255 255 255
-0.0399157 -0.0678245 0.153122 255 255 255
-0.0407596 -0.0618397 0.154723 255 255 255
-0.0342444 -0.0608376 0.156911 255 255 255
0.0420354 -0.0378893 0.256072 255 255 255
0.0450016 -0.0348643 0.251016 255 255 255
-0.0398697 -0.0525386 0.157672 255 255 255
-0.0398745 -0.0525301 0.157666 255 255 255
0.0171244 -0.0333515 0.235674 255 255 255
0.0234536 -0.0321279 0.23666 255 255 255
0.0351215 -0.0226492 0.240724 255 255 255
-0.0461713 -0.0398966 0.159783 255 255 255
-0.0379456 -0.0350948 0.163126 255 255 255
-0.0290317 -0.0359465 0.165103 255 255 255
-0.0346354 -0.0306981 0.165367 255 255 255
0.065405 -0.00812903 0.231433 255 255 255
0.0602018 -0.00222953 0.228811 255 255 255
-0.0209862 -0.00545073 0.202315 255 255 255
0.00416936 -0.0010523 0.206999 255 255 255
-0.0196776 0.000965233 0.198153 255 255 255
0.0424721 0.0103191 0.226501 255 255 255
0.0424391 0.0103447 0.226549 255 255 255
0.0329737 0.0181557 0.234726 255 255 255
0.0665775 0.0296708 0.244167 255 255 255
-0.0209056 -0.0769297 0.039169 255 255 255
0.0413482 0.0385863 0.245966 255 255 255
-0.0394051 -0.0225865 0.11474 255 255 255
-0.0316727 -0.00299881 0.13713 255 255 255
-0.0400158 -0.000331983 0.125024 255 255 255
-0.0445325 -0.0762674 0.149354 255 255 255
-0.0445213 -0.0763067 0.149307 255 255 255
-0.0433132 -0.0726378 0.152014 255 255 255
-0.0431814 -0.0724354 0.151218 255 255 255
-0.0350765 -0.031221 0.265037 255 255 255
-0.0414586 -0.0647768 0.123349 255 255 255
-0.0137719 -0.0347318 0.22943 255 255 255
0.0495974 -0.0277198 0.24164 255 255 255
0.0517338 -0.0252799 0.238835 255 255 255
0.0223828 -0.0151692 0.250134 255 255 255
0.0259709 -0.0136557 0.24349 255 255 255
0.0469303 -0.0120385 0.228529 255 255 255
-0.0221314 0.00203599 0.243538 255 255 255
-0.0144474 0.00205784 0.24547 255 255 255
0.0627977 -0.00733274 0.230697 255 255 255
0.0801949 -0.00696801 0.23516 255 255 255
0.0263686 0.012448 0.222374 255 255 255
-0.0318826 -0.00363408 0.138108 255 255 255
-0.0319618 -0.00356857 0.13832 255 255 255
-0.0366399 -0.00262754 0.13396 255 255 255
-0.0381233 -4.09928e-05 0.124881 255 255 255
-0.027762 -0.0806248 0.152807 255 255 255
0.00512382 -0.0324114 0.252033 255 255 255
-0.0224357 -0.0370935 0.223054 255 255 255
-0.0198196 -0.0310041 0.222319 255 255 255
0.0278635 -0.0240349 0.248209 255 255 255
0.0239199 -0.0117097 0.245622 255 255 255
-0.039241 -0.00495928 0.140553 255 255 255
-0.0402257 -0.00368808 0.135282 255 255 255
-0.0370666 -0.0013142 0.129702 255 255 255
-0.0379509 -0.0514255 0.158642 255 255 255
0.0566168 -0.0225405 0.237285 255 255 255
0.0649534 -0.0224549 0.240685 255 255 255
0.065009 -0.0224245 0.240825 255 255 255
0.0516725 -0.0211131 0.234868 255 255 255
-0.036485 -0.0263708 0.166135 255 255 255
0.0395246 -0.00570787 0.227038 255 255 255
0.0615056 -0.00516042 0.229658 255 255 255
0.0615131 -0.0051528 0.229679 255 255 255
0.0250033 0.00482171 0.239339 255 255 255
-0.0248928 0.0241566 0.230141 255 255 255
-0.0470586 -0.0730223 0.14964 255 255 255
0.0386734 -0.0319497 0.244465 255 255 255
-0.0194774 -0.004975 0.20319 255 255 255
0.0216057 0.0343611 0.233728 255 255 255
-0.0299867 -0.048537 0.169072 255 255 255
-0.0386551 -0.0328178 0.16372 255 255 255
0.0668696 -0.00376862 0.230714 255 255 255
0.0668164 -0.00370749 0.230688 255 255 255
-0.0277071 -0.0117529 0.188648 255 255 255
-0.0114005 -0.00481117 0.205898 255 255 255
-0.00610829 -0.002394 0.205357 255 255 255
-0.0210999 -0.00143497 0.13129 255 255 255
-0.0327284 -0.0507237 0.159911 255 255 255
-0.0292463 -0.0032645 0.139872 255 255 255
-0.0292014 -0.00336693 0.139741 255 255 255
-0.0220019 -0.0299688 0.267675 255 255 255
0.0441134 -0.0295666 0.243047 255 255 255
-0.0267078 -0.0817077 0.152632 255 255 255
-0.0398003 -0.0811544 0.134184 255 255 255
-0.0440443 -0.0678454 0.152286 255 255 255
-0.0319814 -0.0341271 0.260576 255 255 255
0.0400209 -0.0364455 0.261974 255 255 255
0.0400036 -0.0364693 0.26184 255 255 255
0.0467263 -0.0382635 0.257261 255 255 255
-0.03687 -0.0588976 0.156448 255 255 255
-0.0331341 -0.0568745 0.158157 255 255 255
-0.0331285 -0.056879 0.158147 255 255 255
-0.0328318 -0.038383 0.220525 255 255 255
0.0228435 -0.0311669 0.269426 255 255 255
0.0297935 -0.0263618 0.277263 255 255 255
0.0412931 -0.0347535 0.257742 255 255 255
-0.0319199 -0.0556518 0.158665 255 255 255
-0.0345642 -0.0358154 0.219159 255 255 255
-0.0223105 -0.0348002 0.22266 255 255 255
0.0501261 -0.0327902 0.249903 255 255 255
0.0728344 -0.0329213 0.264135 255 255 255
0.00285531 -0.0149477 0.281043 255 255 255
0.0200028 -0.0329422 0.237231 255 255 255
-0.044942 -0.0494052 0.157335 255 255 255
-0.0449406 -0.0494034 0.157371 255 255 255
-0.00732804 -0.0285434 0.223864 255 255 255
-0.0286151 -0.057551 0.123447 255 255 255
0.0339254 -0.0223933 0.241024 255 255 255
-0.0293108 -0.0392836 0.16402 255 255 255
0.028132 -0.0136865 0.240421 255 255 255
0.0713984 -0.0154426 0.236477 255 255 255
0.0354998 -0.00990821 0.231472 255 255 255
0.0308246 -0.000747686 0.23296 255 255 255
0.0308298 -0.000731257 0.233004 255 255 255
0.0699828 -0.00655362 0.232217 255 255 255
0.0737483 -0.00368106 0.232594 255 255 255
0.0205855 0.013458 0.250449 255 255 255
0.029765 0.00139188 0.233968 255 255 255
0.0643874 -0.00256954 0.229947 255 255 255
0.064409 -0.00256269 0.229958 255 255 255
0.0668291 -0.00100265 0.230423 255 255 255
-0.0289597 -0.0146241 0.179883 255 255 255
-0.0239087 -0.0170079 0.173649 255 255 255
-0.0205459 -0.0167657 0.174024 255 255 255
0.0245511 0.0103299 0.241527 255 255 255
0.0245592 0.0103258 0.241529 255 255 255
0.0289631 -0.000624441 0.216656 255 255 255
-0.023324 -0.000820663 0.197091 255 255 255
0.0114422 -0.000807533 0.209947 255 255 255
0.0557651 0.00298824 0.222165 255 255 255
-0.0202439 -0.000529392 0.19795 255 255 255
0.0513598 0.00968553 0.220971 255 255 255
0.0656218 0.0206999 0.235268 255 255 255
0.0704668 0.0180607 0.235274 255 255 255
0.0704142 0.0179534 0.235067 255 255 255
-0.0141237 0.00651294 0.204699 255 255 255
0.0361651 0.0319203 0.235514 255 255 255
0.044274 0.0377671 0.244144 255 255 255
-0.0142626 0.0357328 0.22409 255 255 255
-0.00471894 0.0298947 0.221335 255 255 255
-0.039234 -0.0291558 0.111765 255 255 255
-0.0156333 0.0378791 0.220209 255 255 255
-0.032573 -0.00536775 0.144589 255 255 255
-0.0302154 -0.00551858 0.146237 255 255 255
-0.0308019 0.0389534 0.215993 255 255 255
-0.0255732 0.038981 0.216331 255 255 255
-0.0273134 0.0399296 0.21703 255 255 255
-0.0415871 -0.00902379 0.134859 255 255 255
-0.0282684 -0.00419146 0.141877 255 255 255
-0.0353715 -0.0240704 0.102823 255 255 255
-0.0290958 -0.00231239 0.135086 255 255 255
-0.0301897 -0.0410271 0.0773119 255 255 255
-0.0293101 -0.00148595 0.132485 255 255 255
-0.029317 -0.00147419 0.132499 255 255 255
-0.0321941 0.000173548 0.125224 255 255 255
-0.032894 -0.0640675 0.156127 255 255 255
-0.0266525 -0.0627919 0.159021 255 255 255
0.009341 -0.0302347 0.27209 255 255 255
-0.0183682 -0.0373221 0.227653 255 255 255
-0.033603 -0.054215 0.15884 255 255 255
0.0196801 -0.0330268 0.236499 255 255 255
-0.0442118 -0.0477877 0.157958 255 255 255
-0.00641079 -0.0280291 0.223788 255 255 255
-0.0393512 -0.0398014 0.161596 255 255 255
-0.0356345 0.00395758 0.283029 255 255 255
-0.0347978 0.00344383 0.283111 255 255 255
-0.0155772 -0.0226256 0.214197 255 255 255
0.00848781 -0.0129831 0.218309 255 255 255
-0.0284651 -0.00987259 0.20357 255 255 255
-0.031961 -0.0198005 0.16917 255 255 255
0.00174891 -0.00103683 0.206193 255 255 255
0.0542155 0.0168301 0.225054 255 255 255
-0.0241403 0.0384356 0.246629 255 255 255
0.0235484 0.0232974 0.227127 255 255 255
0.0422643 0.0298359 0.238949 255 255 255
0.0367418 0.030937 0.235423 255 255 255
0.0519674 0.0290042 0.231227 255 255 255
-0.0419846 -0.00774915 0.149533 255 255 255
-0.0209004 -0.0769826 0.0387571 255 255 255
-0.0219135 0.0378099 0.218735 255 255 255
-0.0319559 0.0388213 0.215607 255 255 255
-0.0381696 -0.0038021 0.137379 255 255 255
-0.0396936 -0.00309115 0.134293 255 255 255
-0.0352147 -0.00324916 0.135809 255 255 255
-0.0408106 -0.00269114 0.132811 255 255 255
-0.0330087 -0.00116374 0.129308 255 255 255
-0.0437967 -0.0813833 0.148462 255 255 255
-0.0446748 -0.0797708 0.148867 255 255 255
-0.0401419 -0.0728317 0.151703 255 255 255
-0.0401419 -0.0728317 0.151703 255 255 255
-0.0216211 -0.036842 0.227629 255 255 255
-0.04013 -0.0669866 0.118882 255 255 255
-0.00936091 -0.0356289 0.226048 255 255 255
-0.00561824 -0.0350812 0.230057 255 255 255
-0.0436186 -0.0528911 0.156658 255 255 255
-0.0206297 -0.0333769 0.221798 255 255 255
-0.0162979 -0.0330991 0.224034 255 255 255
-0.0361143 -0.0461332 0.160408 255 255 255
-0.0284911 0.00382818 0.283717 255 255 255
-0.0426552 -0.0372478 0.161662 255 255 255
0.0266565 -0.0112807 0.240952 255 255 255
0.0495259 -0.0202004 0.227289 255 255 255
-0.0395169 -0.0256745 0.165644 255 255 255
-0.0388062 -0.026203 0.165772 255 255 255
-0.042162 -0.0221797 0.165928 255 255 255
0.0347017 -0.000613978 0.228301 255 255 255
0.0112902 0.000307121 0.209354 255 255 255
0.0397748 0.00577811 0.222604 255 255 255
-0.0211334 0.000366466 0.197882 255 255 255
-0.0198635 -0.000160376 0.198343 255 255 255
-0.0228784 -0.00933383 0.173336 255 255 255
-0.0211727 -0.0780838 0.0410219 255 255 255
-0.000500118 0.0262333 0.220262 255 255 255
-0.0406675 -0.00510855 0.141708 255 255 255
-0.019665 -0.0780198 0.0339306 255 255 255
-0.0284456 -0.0513037 0.0701211 255 255 255
-0.0405558 -0.00137662 0.128486 255 255 255
-0.0338876 -0.0818851 0.150909 255 255 255
-0.0445139 -0.0693586 0.151741 255 255 255
-0.0281092 -0.0843223 0.0667608 255 255 255
0.0405855 -0.0359849 0.258365 255 255 255
0.0552461 -0.0323683 0.258877 255 255 255
0.0292529 -0.0321097 0.241931 255 255 255
0.0463759 -0.025944 0.236755 255 255 255
-0.0415322 -0.0394721 0.161015 255 255 255
0.0313928 -0.00719409 0.233899 255 255 255
0.0621084 -0.00922522 0.230931 255 255 255
0.0192792 0.013148 0.254673 255 255 255
-0.0475382 -0.0160596 0.166567 255 255 255
0.0599378 0.00541427 0.228688 255 255 255
0.0422329 0.0104106 0.226576 255 255 255
0.0422389 0.010411 0.226596 255 255 255
0.0681291 0.0133967 0.232439 255 255 255
0.00957657 0.0154889 0.218194 255 255 255
0.0541255 0.0197435 0.229407 255 255 255
-0.0350872 -0.0032089 0.136102 255 255 255
-0.0365784 -0.00164265 0.130503 255 255 255
-0.0377636 -0.000705974 0.128017 255 255 255
-0.0277863 -0.0806281 0.152918 255 255 255
-0.0259194 -0.0806169 0.153434 255 255 255
-0.0345047 -0.0693412 0.15426 255 255 255
-0.0462484 -0.053694 0.155176 255 255 255
0.0526082 -0.0234085 0.237714 255 255 255
0.0263107 -0.0153523 0.243688 255 255 255
-0.0441368 -0.0125787 0.165219 255 255 255
-0.00826616 0.00437732 0.206255 255 255 255
-0.0319068 -0.0288824 0.265682 255 255 255
0.049965 -0.0320401 0.244654 255 255 255
0.0299727 -0.0125037 0.2372 255 255 255
-0.0365084 -0.0263598 0.166164 255 255 255
0.0404031 0.00152489 0.221642 255 255 255
-0.0283388 -0.0661385 0.0706183 255 255 255
0.0052769 0.0367742 0.248633 255 255 255
0.0264888 0.0264111 0.230409 255 255 255
-0.0224376 0.0389269 0.238086 255 255 255
0.0448794 -0.0120246 0.228073 255 255 255
-0.0222446 -0.00222897 0.198701 255 255 255
-0.0363799 -0.0232274 0.102624 255 255 255
0.0308929 -0.015254 0.237854 255 255 255
-0.0446644 -0.0092234 0.154932 255 255 255
-0.0415494 -0.0101242 0.157305 255 255 255
-0.0415383 -0.0101259 0.157274 255 255 255
-0.0199542 -0.0852069 0.0360836 255 255 255
-0.0458634 -0.0274387 0.143674 255 255 255
-0.0367826 -0.0369456 0.169752 255 255 255
-0.0373005 -0.0031152 0.132783 255 255 255
-0.0372406 -0.0032646 0.132576 255 255 255
-0.0404051 -0.0432729 0.160089 255 255 255
0.0377827 0.00879077 0.226938 255 255 255
0.0713701 -0.021266 0.240854 255 255 255
-0.0340957 -0.0692624 0.154059 255 255 255
0.0034072 -0.0319908 0.230748 255 255 255
-0.0287698 -0.0280866 0.2152 255 255 255
0.0721943 -0.0291711 0.251625 255 255 255
0.0286296 0.000207368 0.23543 255 255 255
0.0351889 -0.000599805 0.219071 255 255 255
-0.0388269 -0.0047134 0.140431 255 255 255
-0.0378435 0.0006875 0.122353 255 255 255
-0.0326711 0.00102523 0.122516 255 255 255
-0.0366147 0.00214409 0.117408 255 255 255
-0.0278933 0.0292644 0.212151 255 255 255
0.0350915 0.00796113 0.229392 255 255 255
-0.0187684 -0.00505742 0.203583 255 255 255
0.064414 0.0258306 0.240314 255 255 255
0.0315965 0.0233494 0.239893 255 255 255
0.0532792 0.0128643 0.22936 255 255 255
-0.0331804 -0.0499036 0.160113 255 255 255
-0.0439597 -0.024618 0.267646 255 255 255
-0.0313457 -0.0171887 0.170234 255 255 255
0.068015 0.00374309 0.230661 255 255 255
0.0679914 0.00372398 0.230616 255 255 255
0.0490814 0.0127962 0.22673 255 255 255
-0.0375655 -0.039345 0.161753 255 255 255
-0.0378055 -0.0111714 0.161882 255 255 255
-0.0378055 -0.0111714 0.161882 255 255 255
-0.0372905 -0.0115373 0.163264 255 255 255
-0.0232144 0.00558949 0.109841 255 255 255
-0.0321987 0.00427637 0.110376 255 255 255
-0.0250907 0.00522654 0.109665 255 255 255
-0.0278122 -0.0294348 0.216862 255 255 255
-0.0247066 0.000880984 0.196337 255 255 255
-0.0195922 0.00559505 0.108765 255 255 255
0.000301975 -0.0243684 0.221644 255 255 255
-0.0346197 -0.0349285 0.164223 255 255 255
0.0233117 -0.00166965 0.242353 255 255 255
0.0780741 -0.0164063 0.238126 255 255 255
-0.0216119 -0.0343864 0.221087 255 255 255
0.0649918 -0.0251553 0.243488 255 255 255
-0.0391728 -0.0574602 0.121314 255 255 255
0.0295889 -0.0138209 0.238809 255 255 255
-0.0325808 -0.0068089 0.149294 255 255 255
-0.0306472 -0.0329626 0.263218 255 255 255
0.0626886 -0.0267248 0.244893 255 255 255
-0.0274777 -0.027784 0.215867 255 255 255
0.0550109 -0.0112685 0.229165 255 255 255
0.044666 -0.00805395 0.226941 255 255 255
-0.0208703 -0.0779066 0.0393687 255 255 255
0.00960784 0.0152704 0.217992 255 255 255
0.0644961 0.0309509 0.245362 255 255 255
-0.0371065 -0.0153938 0.109049 255 255 255
-0.0281208 -0.0017078 0.132648 255 255 255
-0.0159022 0.0371236 0.219648 255 255 255
-0.0420714 -0.0301896 0.163758 255 255 255
0.0376274 0.0244841 0.235224 255 255 255
0.0403745 0.042372 0.257774 255 255 255
-0.0390769 -0.0469601 0.15954 255 255 255
-0.0316305 -0.000627707 0.127619 255 255 255
0.0705091 0.0180717 0.235541 255 255 255
-0.0309771 0.0275675 0.210194 255 255 255
-0.0246871 0.00127157 0.124138 255 255 255
-0.0481182 -0.00952506 0.152574 255 255 255
-0.0252458 -0.00100301 0.131424 255 255 255
-0.0282899 0.00271049 0.117787 255 255 255
-0.0434296 -0.0700462 0.151851 255 255 255
-0.016424 0.00384395 0.123646 255 255 255
-0.0482859 -0.0166335 0.166046 255 255 255
0.0256554 0.00425214 0.238827 255 255 255
0.0300494 0.0102222 0.234924 255 255 255
-0.0427164 -0.0110383 0.160256 255 255 255
-0.0427885 -0.0109718 0.160501 255 255 255
0.0646693 0.0105838 0.230876 255 255 255
-0.00469145 0.0033971 0.287737 255 255 255
0.0730963 -0.00588824 0.232929 255 255 255
-0.0453902 -0.0108065 0.159852 255 255 255
-0.0371133 -0.0460157 0.160167 255 255 255
-0.0285425 0.00254522 0.118737 255 255 255
-0.0284978 0.00246919 0.118553 255 255 255
-0.0239997 -0.0364031 0.226124 255 255 255
-0.026757 -0.0273657 0.222578 255 255 255
-0.0177706 -0.00579314 0.186851 255 255 255
-0.042894 -0.0333058 0.128164 255 255 255
0.0530152 -0.016488 0.232557 255 255 255
-0.0304927 -0.0257558 0.167787 255 255 255
-0.0247292 0.00301294 0.242754 255 255 255
0.0439949 0.00575824 0.225628 255 255 255
0.0754298 0.00724643 0.232893 255 255 255
0.0407391 0.00801232 0.226635 255 255 255
0.0334472 0.0178958 0.235047 255 255 255
0.0446998 0.0170563 0.22863 255 255 255
0.0382709 0.0318088 0.236155 255 255 255
-0.0390137 -0.00250037 0.132177 255 255 255
-0.022075 -0.00173667 0.133887 255 255 255
-0.0285668 0.0391839 0.215973 255 255 255
-0.0381201 -3.42645e-05 0.124815 255 255 255
-0.0371207 0.000405123 0.123 255 255 255
-0.0385124 0.00536947 0.281928 255 255 255
-0.0388179 -0.0109014 0.160947 255 255 255
-0.0253945 0.03096 0.214377 255 255 255
-0.0253179 0.0307871 0.213967 255 255 255
-0.0432819 -0.0407363 0.160251 255 255 255
-0.0401388 -0.0262706 0.165217 255 255 255
-0.0295275 -0.0677866 0.156157 255 255 255
0.018001 0.00946269 0.253214 255 255 255
0.0316597 0.00355526 0.228568 255 255 255
-0.0376797 -0.00679372 0.147358 255 255 255
-0.0461929 -0.0263009 0.164397 255 255 255
0.00780329 -0.0337225 0.231443 255 255 255
0.0295756 -0.0315912 0.238182 255 255 255
-0.00646389 -0.00564345 0.208301 255 255 255
0.0710518 -0.00366269 0.231896 255 255 255
-0.044133 -0.012971 0.166879 255 255 255
0.0311422 -0.00698837 0.221641 255 255 255
0.0429747 -0.0378783 0.253878 255 255 255
0.0729457 -0.0208602 0.241008 255 255 255
0.039936 -0.0348923 0.261061 255 255 255
-0.0390567 -0.0296169 0.164752 255 255 255
0.0210249 0.000759794 0.246215 255 255 255
0.0294555 0.00330212 0.234477 255 255 255
0.0751126 0.00232938 0.232535 255 255 255
-0.037783 -0.0574637 0.121831 255 255 255
0.045987 6.68317e-05 0.222797 255 255 255
-0.0148221 0.000423086 0.200091 255 255 255
0.0284782 0.0112468 0.221606 255 255 255
-0.0405437 -0.00477143 0.139999 255 255 255
-0.039637 0.00112518 0.120196 255 255 255
-0.0301816 -0.068974 0.155339 255 255 255
0.018793 -0.00127227 0.253192 255 255 255
-0.0460787 -0.0237485 0.164529 255 255 255
0.0495929 -0.00964209 0.224047 255 255 255
-0.0423478 -0.0178092 0.167203 255 255 255
-0.0259343 0.00179544 0.121839 255 255 255
-0.0469642 -0.0230372 0.16444 255 255 255
-0.0379976 -0.00383643 0.136908 255 255 255
0.0413936 0.0213653 0.231311 255 255 255
0.0413942 0.0213675 0.231319 255 255 255
0.0459403 -0.0239932 0.236855 255 255 255
-0.0156101 -0.0210037 0.213245 255 255 255
-0.0392905 -0.0214811 0.166928 255 255 255
0.0469138 0.0187461 0.229573 255 255 255
-0.0287302 -0.0490413 0.161378 255 255 255
0.0237021 -0.0012507 0.240497 255 255 255
-0.0451801 -0.0173936 0.166688 255 255 255
-0.0441222 -0.0149229 0.16759 255 255 255
-0.0412551 -0.0294283 0.163433 255 255 255
-0.0131076 -0.00530406 0.203254 255 255 255
0.0634482 0.0266866 0.239568 255 255 255
-0.0433201 -0.00240167 0.130637 255 255 255
-0.0337128 -0.0249472 0.21132 255 255 255
0.0423903 -0.0217148 0.234767 255 255 255
-0.0232405 0.00357564 0.11536 255 255 255
-0.031693 -0.00377309 0.138711 255 255 255
0.0428268 0.0171425 0.228931 255 255 255
0.0101862 -0.0321962 0.232825 255 255 255
0.0424953 0.0351713 0.242926 255 255 255
-0.0344907 0.00271196 0.116633 255 255 255
-0.0409165 -0.0339643 0.162879 255 255 255
0.0683531 -0.0298359 0.252085 255 255 255
0.0434368 0.00455929 0.223935 255 255 255
0.0341604 -0.00761117 0.230618 255 255 255
-0.0324999 -0.000487844 0.127249 255 255 255
0.0309438 -0.0160454 0.238964 255 255 255
-0.0221992 0.0123282 0.0860143 255 255 255
0.0380597 -0.0301711 0.239713 255 255 255
0.0635243 -0.0224996 0.24003 255 255 255
-0.0377996 -0.0138534 0.169258 255 255 255
0.0664034 0.00284063 0.230221 255 255 255
-0.0461318 -0.00910195 0.15227 255 255 255
-0.0461459 -0.00908136 0.152333 255 255 255
0.0429596 -0.0232095 0.236204 255 255 255
0.0614892 -0.00250445 0.229374 255 255 255
-0.0387717 -0.0401735 0.161519 255 255 255
0.0352146 -0.0118019 0.232422 255 255 255
-0.0351648 0.0037065 0.111373 255 255 255
-0.0311232 -0.00265712 0.135258 255 255 255
-0.033478 -0.0224328 0.167975 255 255 255
-0.0347591 -0.0480387 0.160114 255 255 255
-0.0181815 0.0043764 0.202593 255 255 255
0.0305977 0.0112311 0.234548 255 255 255
0.0782974 0.0140121 0.235529 255 255 255
-0.0379513 -0.0469055 0.159565 255 255 255
-0.0380333 -0.0457738 0.160034 255 255 255
-0.0304599 0.00134827 0.122251 255 255 255
-0.0390148 -0.0407996 0.161181 255 255 255
0.0221895 -0.0213064 0.228379 255 255 255
0.0466149 0.00373336 0.225465 255 255 255
0.0325706 0.0280522 0.242669 255 255 255
-0.0419953 -0.0274682 0.134518 255 255 255
-0.0364463 -0.0199494 0.104111 255 255 255
-0.034354 -0.0540414 0.158504 255 255 255
0.0193735 -0.0190205 0.225952 255 255 255
-0.0327376 -0.0271622 0.166884 255 255 255
-0.000702589 0.0213251 0.279179 255 255 255
-0.00275435 0.022472 0.278284 255 255 255
-0.00153411 0.0363266 0.266776 255 255 255
0.0761192 0.030263 0.247638 255 255 255
-0.0404584 -0.0035363 0.135572 255 255 255
0.03642 0.0136518 0.230507 255 255 255
-0.0386627 -0.00186541 0.129976 255 255 255
-0.0127267 0.0335136 0.219533 255 255 255
-0.0370619 -0.00231733 0.132597 255 255 255
-0.0487597 -0.0339551 0.160874 255 255 255
-0.0264139 0.00372411 0.114404 255 255 255
-0.0265093 0.00382931 0.114753 255 255 255
-0.0303054 -0.0407776 0.163127 255 255 255
-0.0470588 -0.0463258 0.156664 255 255 255
-0.0349878 -0.0580575 0.157355 255 255 255
0.0481606 -0.0146884 0.228994 255 255 255
0.0666817 -0.00011319 0.230799 255 255 255
0.0652578 -0.00545242 0.23085 255 255 255
-0.0241462 0.0149523 0.0790245 255 255 255
-0.0128199 0.0198149 0.0633053 255 255 255
0.0347648 -0.0306266 0.270993 255 255 255
-0.0368462 -0.0492258 0.159901 255 255 255
0.0346599 -0.0230753 0.241115 255 255 255
0.0278031 -0.016628 0.242931 255 255 255
0.041939 -0.0163308 0.231144 255 255 255
0.0693282 -0.0126981 0.234246 255 255 255
0.0536445 -0.0055659 0.222171 255 255 255
0.0796111 0.00222875 0.233565 255 255 255
0.0478051 0.00593195 0.225699 255 255 255
0.0795472 0.00553714 0.233838 255 255 255
-0.0442338 -0.0111352 0.16131 255 255 255
-0.0258406 -0.00472354 0.176349 255 255 255
-0.0246398 -0.00462586 0.176844 255 255 255
0.0393762 0.0334591 0.23909 255 255 255
-0.0326322 -0.00669408 0.149383 255 255 255
-0.00648957 0.0379703 0.223492 255 255 255
-0.00639895 0.0377811 0.223201 255 255 255
-0.0255916 -0.00317241 0.138439 255 255 255
-0.0323665 -0.00232945 0.135624 255 255 255
-0.0270819 -0.00239516 0.135506 255 255 255
-0.0270816 -0.00243419 0.135446 255 255 255
-0.0348143 -0.000255949 0.126353 255 255 255
-0.0380701 -0.0743999 0.151915 255 255 255
-0.0310428 -0.0703404 0.154815 255 255 255
-0.0416189 -0.0461417 0.158883 255 255 255
-0.0288598 0.00192756 0.284081 255 255 255
-0.031114 -0.0386572 0.163914 255 255 255
0.0307508 -0.0171992 0.239909 255 255 255
0.0372312 -0.0154502 0.232753 255 255 255
0.0239647 0.00560286 0.240981 255 255 255
-0.0211656 -0.0168354 0.173719 255 255 255
-0.044857 -0.00671145 0.145037 255 255 255
-0.0277948 -0.000287019 0.127939 255 255 255
-0.0355032 -0.0148883 0.105817 255 255 255
0.0334186 -0.0284863 0.23954 255 255 255
0.0407029 -0.0260847 0.240234 255 255 255
0.0469657 0.00150797 0.223214 255 255 255
-0.0349335 -0.00687763 0.148659 255 255 255
-0.0374636 -0.0265007 0.104789 255 255 255
-0.0363973 -0.0710125 0.153454 255 255 255
0.0671519 -0.0298334 0.251965 255 255 255
0.0313846 -0.0181096 0.239484 255 255 255
0.0313983 -0.0180684 0.239594 255 255 255
-0.0289544 -0.00436494 0.142333 255 255 255
-0.0289544 -0.00436494 0.142333 255 255 255
-0.0310638 -0.00147012 0.131544 255 255 255
0.024486 0.000898346 0.222454 255 255 255
-0.0453519 -0.0796292 0.148601 255 255 255
-0.0259655 -0.0758598 0.154457 255 255 255
-0.0268077 -0.0732277 0.154963 255 255 255
0.0358945 -0.0317422 0.278633 255 255 255
0.0358339 -0.0318561 0.278298 255 255 255
0.0405472 -0.0381103 0.261838 255 255 255
0.0467364 -0.0382473 0.257308 255 255 255
0.0420634 -0.0346669 0.254014 255 255 255
0.0526045 -0.0326176 0.267484 255 255 255
-0.0335897 -0.0590822 0.157391 255 255 255
-0.0222493 -0.0373171 0.224037 255 255 255
-0.0147513 -0.0367102 0.225979 255 255 255
0.0530335 -0.0324864 0.256647 255 255 255
-0.0363486 -0.0357936 0.2192 255 255 255
-0.0363486 -0.0357936 0.2192 255 255 255
-0.0111262 -0.0350528 0.225365 255 255 255
0.0114734 -0.0327806 0.232471 255 255 255
0.0478247 -0.0311754 0.244452 255 255 255
0.0511722 -0.0312495 0.252184 255 255 255
0.0337199 -0.0301755 0.239915 255 255 255
0.03887 -0.0255594 0.240365 255 255 255
0.0419009 -0.0269071 0.241056 255 255 255
0.0478928 -0.0258721 0.231939 255 255 255
0.0515644 -0.0251496 0.240035 255 255 255
-0.035836 -0.0444085 0.161026 255 255 255
-0.0348895 0.00471387 0.28261 255 255 255
-0.0155176 -0.0230846 0.214718 255 255 255
0.0647987 -0.0206032 0.238676 255 255 255
0.0648196 -0.0205954 0.238721 255 255 255
-0.0398237 -0.0573426 0.121516 255 255 255
-0.0397986 -0.0573742 0.121435 255 255 255
-0.0294635 -0.057561 0.123041 255 255 255
0.0244076 -0.011738 0.244689 255 255 255
0.0346654 -0.0145745 0.234303 255 255 255
0.0673579 -0.0167126 0.236366 255 255 255
0.0526936 -0.0118747 0.228694 255 255 255
-0.0271013 -0.0762491 0.0672468 255 255 255
-0.0395067 -0.0540036 0.115422 255 255 255
-0.0334508 -0.0135886 0.202909 255 255 255
0.0228509 -0.000693809 0.243202 255 255 255
-0.014931 -0.00938283 0.208156 255 255 255
0.0270185 -0.00148411 0.237247 255 255 255
0.0501072 -0.00456858 0.221074 255 255 255
0.0557779 -0.00463585 0.227622 255 255 255
-0.0282176 -0.0153182 0.181849 255 255 255
-0.0260468 -0.0147232 0.180644 255 255 255
-0.00813027 -0.00458621 0.207003 255 255 255
0.0238854 0.00127679 0.213876 255 255 255
0.0289736 -0.000562836 0.216766 255 255 255
0.0684763 0.00646869 0.231077 255 255 255
0.0338414 0.0101351 0.228178 255 255 255
0.0358552 0.00640109 0.223155 255 255 255
0.0505099 0.00713308 0.220636 255 255 255
0.0585166 0.00820523 0.228781 255 255 255
-0.0317004 -0.0132828 0.168441 255 255 255
-0.0287896 -0.0101858 0.174086 255 255 255
-0.00308905 0.00774735 0.20966 255 255 255
0.0232614 0.0132653 0.220919 255 255 255
-0.0468333 -0.0113918 0.161877 255 255 255
-0.0242322 -0.0041713 0.176988 255 255 255
0.042822 0.0171076 0.22881 255 255 255
0.0430514 0.0206821 0.230664 255 255 255
0.0430585 0.0206831 0.230669 255 255 255
0.0581875 0.0224056 0.234926 255 255 255
0.0728395 0.0181924 0.235941 255 255 255
0.0191432 0.0200294 0.223831 255 255 255
0.0369167 0.0258012 0.236876 255 255 255
-0.0158489 -0.0066496 0.156886 255 255 255
0.000272197 0.0353753 0.226246 255 255 255
0.00185152 0.0380143 0.22687 255 255 255
-0.0158279 0.0386613 0.220299 255 255 255
-0.0428687 -0.013632 0.130485 255 255 255
-0.0417326 -0.00411475 0.137845 255 255 255
-0.0309558 -0.0034796 0.139188 255 255 255
-0.0426092 -0.00360277 0.135284 255 255 255
-0.0294975 -0.00322303 0.138074 255 255 255
-0.0230476 -0.00173746 0.13397 255 255 255
-0.0223157 -0.00105453 0.131799 255 255 255
-0.029815 -0.000512821 0.128318 255 255 255
-0.0380908 0.00037858 0.123176 255 255 255
-0.0346514 0.000555728 0.123827 255 255 255
-0.0271042 0.000617689 0.12554 255 255 255
-0.0235756 0.000746568 0.125944 255 255 255
-0.022602 0.000747445 0.125772 255 255 255
-0.0219093 0.000991935 0.124985 255 255 255
-0.0316071 -0.0695287 0.154823 255 255 255
0.0692954 -0.032636 0.271393 255 255 255
0.0157447 -0.0331237 0.234256 255 255 255
0.0282433 -0.0320202 0.237731 255 255 255
-0.0376094 -0.0489118 0.159341 255 255 255
0.0668964 -0.0254188 0.244457 255 255 255
0.0519692 -0.0239673 0.234329 255 255 255
0.0406076 -0.0196455 0.233569 255 255 255
-0.0284933 -0.0386949 0.165926 255 255 255
0.00810811 -0.0138285 0.218707 255 255 255
0.0085001 -0.0129601 0.218398 255 255 255
0.00955217 -0.014693 0.219699 255 255 255
-0.0461136 -0.0303849 0.162611 255 255 255
-0.0295357 -0.0297627 0.166909 255 255 255
0.0548485 -0.00602632 0.227777 255 255 255
-0.00449467 -0.00637257 0.209571 255 255 255
0.0324693 0.00216524 0.231399 255 255 255
-0.0423459 -0.0177948 0.16719 255 255 255
-0.0245565 -0.0146633 0.176049 255 255 255
-0.0169197 0.00108995 0.199278 255 255 255
-0.0430605 -0.0337749 0.130631 255 255 255
-0.021378 0.00143199 0.198243 255 255 255
-0.0210703 0.0397149 0.26281 255 255 255
0.0345111 0.0186934 0.233697 255 255 255
0.0549205 0.0100883 0.222386 255 255 255
-0.0272172 0.0394808 0.255672 255 255 255
0.033051 0.0222226 0.237383 255 255 255
0.00165798 0.0253731 0.220767 255 255 255
0.00430954 0.0242137 0.220412 255 255 255
0.0310517 0.0328872 0.235778 255 255 255
0.0310756 0.0330125 0.236049 255 255 255
-0.0180474 0.0367227 0.219608 255 255 255
-0.0414679 -0.00927151 0.134523 255 255 255
-0.03287 -0.00461064 0.141638 255 255 255
-0.0304139 -0.00430136 0.141561 255 255 255
-0.0304043 -0.00419944 0.141718 255 255 255
-0.031188 -0.00351826 0.138295 255 255 255
-0.0358753 -0.00281149 0.133419 255 255 255
-0.0329455 -0.000173843 0.126612 255 255 255
-0.0382327 0.000441783 0.122525 255 255 255
-0.0378139 0.000693336 0.122407 255 255 255
-0.036582 0.000735605 0.122101 255 255 255
-0.0358306 0.00076278 0.122729 255 255 255
-0.0323001 0.000404008 0.124447 255 255 255
-0.0298215 0.000669486 0.124381 255 255 255
-0.0279839 0.000643986 0.124808 255 255 255
-0.029757 -0.0754964 0.153836 255 255 255
-0.0264287 -0.0720125 0.155819 255 255 255
-0.0355736 -0.0712659 0.153633 255 255 255
-0.0305266 -0.0703718 0.155154 255 255 255
-0.0280219 -0.0641908 0.157559 255 255 255
-0.0323079 -0.0302149 0.26665 255 255 255
-0.0235501 -0.0929801 0.0514836 255 255 255
0.0376471 -0.0318279 0.26955 255 255 255
0.00813845 -0.033883 0.231387 255 255 255
0.0667713 -0.0317253 0.255874 255 255 255
-0.0367424 -0.0527063 0.158375 255 255 255
0.0493501 -0.0290366 0.241007 255 255 255
0.00227591 -0.022471 0.222731 255 255 255
0.0115317 -0.0156275 0.221111 255 255 255
0.0592002 -0.0133104 0.232132 255 255 255
-0.0398322 -0.0319337 0.163667 255 255 255
-0.0462335 -0.0287489 0.16307 255 255 255
0.0229934 0.0043211 0.242252 255 255 255
0.0600097 -0.00600304 0.229619 255 255 255
-0.00544163 -0.00587643 0.208849 255 255 255
-0.000999588 -0.00744366 0.211703 255 255 255
0.00747061 4.54202e-05 0.208617 255 255 255
0.0149383 3.20868e-05 0.211365 255 255 255
0.0342903 0.00533867 0.220236 255 255 255
0.0471081 0.00629887 0.225516 255 255 255
-0.0477625 -0.0098343 0.155152 255 255 255
-0.0431499 -0.00945664 0.154786 255 255 255
-0.0263527 -0.0344182 0.112132 255 255 255
-0.03106 -0.00700048 0.149704 255 255 255
-0.0189481 -0.0826111 0.0317707 255 255 255
-0.0382198 -0.00421915 0.138181 255 255 255
-0.0281692 -0.0041716 0.141315 255 255 255
-0.0337406 -0.00353514 0.136994 255 255 255
-0.0337831 -0.00351043 0.137025 255 255 255
-0.0396973 0.000166169 0.123465 255 255 255
-0.0211894 0.000851897 0.125183 255 255 255
-0.0278546 -0.0579388 0.159235 255 255 255
0.0603731 -0.0306233 0.252453 255 255 255
-0.0279033 -0.0535363 0.160641 255 255 255
0.0594185 -0.0212622 0.237961 255 255 255
-0.00216864 -0.00680179 0.210429 255 255 255
0.0454239 -0.00294309 0.225808 255 255 255
0.0405625 0.0102848 0.227046 255 255 255
-0.0459103 -0.0133622 0.167093 255 255 255
0.0185888 0.0181439 0.222693 255 255 255
0.00244328 0.0368213 0.244545 255 255 255
-0.0314374 -0.0488079 0.0815255 255 255 255
-0.0365286 -0.00173203 0.130317 255 255 255
-0.0349765 -0.00164226 0.131447 255 255 255
-0.0263346 0.000349457 0.12554 255 255 255
-0.0191192 0.00052052 0.126316 255 255 255
-0.0224803 -0.034531 0.222292 255 255 255
0.0579735 -0.013773 0.232214 255 255 255
0.0464968 0.00481451 0.225359 255 255 255
0.0483701 0.0187682 0.227314 255 255 255
-0.0380495 -0.00935284 0.157109 255 255 255
-0.0301834 -0.0034962 0.139563 255 255 255
-0.0302494 -0.00327815 0.139877 255 255 255
-0.0253438 0.000856201 0.124527 255 255 255
-0.0270396 -0.0678295 0.156743 255 255 255
-0.0287085 -0.0567008 0.159123 255 255 255
-0.0181914 0.00679681 0.202451 255 255 255
-0.0122101 0.0351927 0.222438 255 255 255
-0.0427445 -0.00115138 0.137665 255 255 255
-0.027949 -0.00100597 0.130214 255 255 255
-0.0371037 9.12433e-05 0.125392 255 255 255
0.000638121 -0.0148302 0.276997 255 255 255
0.0204562 -0.0129062 0.223155 255 255 255
