ply
format ascii 1.0
element vertex 559
property float x
property float y
property float z
property uchar red
property uchar green
property uchar blue
end_header
6.05993 0.279006 -0.150131 0 255 0
6.03653 0.282562 -0.141151 0 255 0
6.01332 0.286115 -0.129305 0 255 0
5.98986 0.288899 -0.120107 0 255 0
5.96693 0.292443 -0.110647 0 255 0
5.94345 0.295896 -0.101941 0 255 0
5.92037 0.29852 -0.0906481 0 255 0
5.89698 0.30225 -0.081821 0 255 0
5.87411 0.304293 -0.0689384 0 255 0
5.8501 0.308379 -0.0594145 0 255 0
5.82706 0.3117 -0.047489 0 255 0
5.80316 0.314193 -0.0376517 0 255 0
5.77991 0.317006 -0.0294691 0 255 0
5.75565 0.319703 -0.0203189 0 255 0
5.73204 0.32312 -0.00941791 0 255 0
5.70827 0.325509 -0.00127869 0 255 0
5.68483 0.328723 0.00700534 0 255 0
5.66116 0.331437 0.0162907 0 255 0
5.63718 0.334269 0.0255202 0 255 0
5.61315 0.337007 0.0337816 0 255 0
5.59044 0.340568 0.0419481 0 255 0
5.5678 0.342927 0.0506639 0 255 0
5.5437 0.345236 0.0549112 0 255 0
5.52048 0.347871 0.0616527 0 255 0
5.4979 0.351625 0.0708816 0 255 0
5.4979 0.351625 0.0708816 0 255 0
5.45204 0.35251 0.0875688 0 255 0
5.43008 0.355281 0.0953924 0 255 0
5.40815 0.358437 0.103213 0 255 0
5.38557 0.362286 0.112635 0 255 0
5.36418 0.365564 0.120796 0 255 0
5.3423 0.36939 0.129835 0 255 0
5.32069 0.372622 0.138757 0 255 0
5.29914 0.376151 0.148607 0 255 0
5.27729 0.380171 0.158338 0 255 0
5.25596 0.383787 0.166915 0 255 0
5.23452 0.386617 0.175438 0 255 0
5.21317 0.389526 0.182856 0 255 0
5.192 0.39244 0.190014 0 255 0
5.17084 0.394641 0.196323 0 255 0
5.14971 0.397923 0.204904 0 255 0
5.12918 0.40063 0.212577 0 255 0
5.10844 0.403165 0.219434 0 255 0
5.08778 0.405398 0.226903 0 255 0
5.06702 0.408044 0.234389 0 255 0
5.04651 0.410063 0.239835 0 255 0
5.02561 0.412109 0.244716 0 255 0
5.00461 0.414337 0.251109 0 255 0
4.98358 0.416555 0.257135 0 255 0
4.96284 0.418536 0.262935 0 255 0
4.94233 0.420509 0.26844 0 255 0
4.92091 0.422637 0.27475 0 255 0
4.90059 0.424392 0.280524 0 255 0
4.87997 0.426528 0.286425 0 255 0
4.85945 0.42848 0.292551 0 255 0
4.83882 0.430858 0.299638 0 255 0
4.81808 0.433484 0.307313 0 255 0
4.79727 0.436598 0.316001 0 255 0
4.77649 0.439851 0.325186 0 255 0
4.75619 0.442419 0.332936 0 255 0
4.73548 0.444691 0.340401 0 255 0
4.71574 0.446212 0.34641 0 255 0
4.6959 0.447556 0.35155 0 255 0
4.67585 0.449543 0.357893 0 255 0
4.6557 0.450332 0.363194 0 255 0
4.63637 0.450703 0.366541 0 255 0
4.61628 0.451269 0.370465 0 255 0
4.59676 0.451852 0.37462 0 255 0
4.57635 0.453375 0.380646 0 255 0
4.55628 0.456067 0.389254 0 255 0
4.53725 0.458942 0.399365 0 255 0
4.51818 0.460956 0.407382 0 255 0
4.49822 0.46356 0.415957 0 255 0
4.47894 0.465966 0.424199 0 255 0
4.45997 0.468068 0.433034 0 255 0
4.44081 0.469365 0.44018 0 255 0
4.42208 0.470847 0.44672 0 255 0
4.40276 0.47345 0.455599 0 255 0
4.38433 0.475361 0.463468 0 255 0
4.36519 0.477865 0.472557 0 255 0
4.34687 0.480626 0.481934 0 255 0
4.32814 0.483484 0.491637 0 255 0
4.3096 0.486122 0.500521 0 255 0
4.29106 0.488003 0.508721 0 255 0
4.2726 0.49061 0.517866 0 255 0
4.25392 0.493627 0.528413 0 255 0
4.23604 0.496035 0.537908 0 255 0
4.21759 0.499383 0.548221 0 255 0
4.19957 0.502269 0.558909 0 255 0
4.18191 0.505852 0.570501 0 255 0
4.16397 0.508909 0.58059 0 255 0
4.14612 0.512451 0.590791 0 255 0
4.12839 0.515679 0.601068 0 255 0
4.11114 0.519252 0.612486 0 255 0
4.09346 0.522663 0.622026 0 255 0
4.07608 0.525788 0.63205 0 255 0
4.05875 0.529348 0.642987 0 255 0
4.04179 0.53344 0.655069 0 255 0
4.0245 0.537263 0.666282 0 255 0
4.00736 0.541116 0.678252 0 255 0
3.99053 0.543597 0.690215 0 255 0
3.97381 0.547431 0.70207 0 255 0
3.95698 0.55175 0.713645 0 255 0
3.94041 0.55491 0.725073 0 255 0
3.92248 0.556842 0.73832 0 255 0
3.90356 0.554182 0.751467 0 255 0
3.88525 0.554673 0.762728 0 255 0
3.86634 0.554528 0.773616 0 255 0
3.84888 0.557097 0.785403 0 255 0
3.83085 0.558889 0.796561 0 255 0
3.81315 0.561696 0.809721 0 255 0
3.7957 0.564927 0.824957 0 255 0
3.77891 0.568834 0.840194 0 255 0
3.7626 0.572232 0.85521 0 255 0
3.74629 0.575776 0.868819 0 255 0
3.72939 0.578788 0.881634 0 255 0
3.71289 0.581706 0.895724 0 255 0
3.69561 0.584849 0.911045 0 255 0
3.6796 0.587509 0.925345 0 255 0
3.66167 0.590292 0.941685 0 255 0
3.64465 0.592841 0.956151 0 255 0
3.62769 0.594708 0.970869 0 255 0
3.61117 0.596714 0.984796 0 255 0
3.59424 0.598454 1.00006 0 255 0
3.57686 0.600393 1.01464 0 255 0
3.55948 0.602309 1.02805 0 255 0
3.54196 0.603608 1.04184 0 255 0
3.52505 0.606124 1.05402 0 255 0
3.50774 0.60778 1.0649 0 255 0
3.49032 0.609398 1.07495 0 255 0
3.47274 0.611302 1.08603 0 255 0
3.45567 0.61328 1.09765 0 255 0
3.43833 0.615324 1.10937 0 255 0
3.42054 0.616665 1.11939 0 255 0
3.40324 0.618249 1.13087 0 255 0
3.38588 0.620139 1.14195 0 255 0
3.3682 0.62181 1.1522 0 255 0
3.35051 0.622984 1.16178 0 255 0
3.33311 0.624687 1.17323 0 255 0
3.31554 0.626736 1.18378 0 255 0
3.29769 0.62818 1.19383 0 255 0
3.28007 0.629604 1.20395 0 255 0
3.2622 0.631124 1.21451 0 255 0
3.24457 0.632359 1.22441 0 255 0
3.22705 0.633404 1.23391 0 255 0
3.20887 0.634694 1.24365 0 255 0
3.1915 0.63621 1.25594 0 255 0
3.17366 0.637499 1.26662 0 255 0
3.15613 0.638466 1.27676 0 255 0
3.13812 0.640303 1.28958 0 255 0
3.1211 0.642396 1.30124 0 255 0
3.1033 0.642901 1.31136 0 255 0
3.08579 0.643986 1.32156 0 255 0
3.06839 0.645063 1.33366 0 255 0
3.05142 0.646864 1.34477 0 255 0
3.03415 0.647804 1.35667 0 255 0
3.01719 0.649523 1.36808 0 255 0
2.99978 0.652397 1.38016 0 255 0
2.98262 0.654239 1.39146 0 255 0
2.96544 0.656214 1.40296 0 255 0
2.94836 0.658196 1.41503 0 255 0
2.93137 0.6601 1.42722 0 255 0
2.91435 0.661802 1.43924 0 255 0
2.89699 0.663979 1.4513 0 255 0
2.88019 0.666812 1.46465 0 255 0
2.86289 0.668926 1.47719 0 255 0
2.84545 0.670578 1.48997 0 255 0
2.82825 0.672513 1.50327 0 255 0
2.81064 0.676087 1.51879 0 255 0
2.79345 0.678637 1.53269 0 255 0
2.77623 0.6813 1.54656 0 255 0
2.75904 0.683725 1.56028 0 255 0
2.74162 0.686677 1.57546 0 255 0
2.72444 0.68964 1.59156 0 255 0
2.70767 0.693028 1.60976 0 255 0
2.69097 0.696802 1.62899 0 255 0
2.6739 0.69999 1.64763 0 255 0
2.65678 0.703218 1.66614 0 255 0
2.64916 0.711841 1.76795 0 255 0
2.63637 0.718256 1.80451 0 255 0
2.62461 0.723296 1.83999 0 255 0
2.61033 0.727074 1.87067 0 255 0
2.59549 0.730457 1.89885 0 255 0
2.58056 0.732866 1.92496 0 255 0
2.56462 0.735797 1.9501 0 255 0
2.5502 0.738404 1.97859 0 255 0
2.53565 0.742092 2.00897 0 255 0
2.5224 0.746449 2.04052 0 255 0
2.50787 0.74997 2.07082 0 255 0
2.49394 0.753836 2.10112 0 255 0
7.62087 1.11491 5.91101 255 255 255
7.53195 1.60049 5.95783 255 255 255
7.51405 1.69736 5.9666 255 255 255
7.50451 1.74766 5.97099 255 255 255
6.52544 0.362767 8.45977 255 255 255
7.23638 3.07805 6.05862 255 255 255
7.22616 3.12582 6.06136 255 255 255
7.1212 0.401531 5.52123 255 255 255
7.34434 0.841773 5.51332 255 255 255
5.82959 4.0605 7.49704 255 255 255
5.74317 4.07025 7.80674 255 255 255
7.33264 1.18962 5.54454 255 255 255
7.16033 2.12407 5.63241 255 255 255
4.41454 3.77748 8.03474 255 255 255
5.59252 3.63141 6.48152 255 255 255
-17.6414 12.1229 63.6335 255 255 255
7.13025 2.1244 5.63665 255 255 255
5.81797 3.10956 8.49661 255 255 255
7.09363 2.31424 5.654 255 255 255
5.3223 3.97267 9.91203 255 255 255
7.0758 2.41049 5.66138 255 255 255
7.06612 2.46144 5.66717 255 255 255
6.94727 3.05225 5.70148 255 255 255
7.34084 0.727586 5.49178 255 255 255
6.1459 0.881495 8.54399 255 255 255
7.30483 0.985735 5.52632 255 255 255
7.15416 1.83334 5.61206 255 255 255
7.10009 2.12433 5.63934 255 255 255
4.45399 3.91396 9.4665 255 255 255
7.03843 0.0886902 8.32736 255 255 255
7.22185 1.28758 5.56173 255 255 255
4.53579 3.91481 9.93402 255 255 255
7.22855 0.127027 8.36573 255 255 255
6.46193 0.918501 8.47214 255 255 255
7.15942 1.63619 5.59652 255 255 255
5.8195 3.24155 8.47301 255 255 255
5.80516 3.66186 8.47241 255 255 255
6.85152 2.79453 5.70984 255 255 255
6.37899 2.04814 8.4217 255 255 255
3.96942 5.71483 22.4817 255 255 255
3.99207 5.42988 18.9352 255 255 255
5.91448 3.00088 8.50782 255 255 255
7.03301 0.629854 8.32219 255 255 255
4.81183 5.00331 17.354 255 255 255
6.97845 2.12187 5.64892 255 255 255
6.90808 2.50383 5.68816 255 255 255
6.31371 0.0487857 8.51762 255 255 255
7.16499 0.877691 5.52411 255 255 255
4.55753 2.67339 5.18637 255 255 255
7.15498 0.832847 5.52003 255 255 255
7.06952 1.07893 5.55329 255 255 255
4.62357 3.35986 6.12591 255 255 255
6.4999 3.36365 6.19471 255 255 255
4.90512 5.00898 17.2179 255 255 255
6.9173 2.12101 5.65327 255 255 255
6.31368 0.547056 8.48571 255 255 255
4.72364 4.12049 12.6669 255 255 255
5.18769 4.44388 9.40173 255 255 255
6.99064 1.53056 5.59621 255 255 255
6.98163 1.58211 5.60129 255 255 255
6.91247 1.97732 5.63931 255 255 255
6.40363 4.4004 8.44213 255 255 255
6.48326 3.45271 6.20136 255 255 255
7.044 0.455902 5.9279 255 255 255
6.81095 1.38529 6.01189 255 255 255
5.68254 3.92129 8.52317 255 255 255
7.09702 0.250638 8.31259 255 255 255
7.16073 0.511577 5.92511 255 255 255
6.92435 0.407427 5.95307 255 255 255
6.29337 1.76975 8.47798 255 255 255
5.24418 4.44913 9.59691 255 255 255
7.06942 0.78164 5.94139 255 255 255
5.94364 5.33235 21.055 255 255 255
5.52616 5.01262 16.7197 255 255 255
7.07938 0.571071 5.93724 255 255 255
7.06206 1.14818 8.40952 255 255 255
6.07909 4.14375 7.46986 255 255 255
7.01584 0.619378 5.94016 255 255 255
6.52164 0.311718 8.39646 255 255 255
6.80796 1.58059 6.02286 255 255 255
6.90805 0.76647 5.93814 255 255 255
6.86702 1.03361 5.97125 255 255 255
6.85069 1.1339 5.98087 255 255 255
6.81767 1.33361 6.0001 255 255 255
6.80131 1.43277 6.0091 255 255 255
6.76101 1.67827 6.03455 255 255 255
4.99406 5.88241 27.1619 255 255 255
6.42035 2.40214 8.38696 255 255 255
6.71036 1.9709 6.0587 255 255 255
6.70187 2.02108 6.06383 255 255 255
4.28259 1.99933 4.2233 255 255 255
4.41364 2.62622 4.7447 255 255 255
5.36286 4.80669 17.3651 255 255 255
4.41633 1.6181 4.84491 255 255 255
6.68007 2.16377 6.08468 255 255 255
6.66099 2.25758 6.08572 255 255 255
6.65215 2.30781 6.09029 255 255 255
6.63114 2.44894 6.11245 255 255 255
5.84415 3.42264 8.49509 255 255 255
4.44329 2.34684 4.70584 255 255 255
6.51375 3.09151 6.16165 255 255 255
5.7742 4.14275 7.56428 255 255 255
4.35859 2.22195 4.47187 255 255 255
4.45369 2.25201 4.69207 255 255 255
4.34888 2.31617 4.48447 255 255 255
4.80194 3.0989 5.99443 255 255 255
5.35214 3.98025 9.73352 255 255 255
5.90299 4.16025 7.83985 255 255 255
6.33122 1.77283 8.46229 255 255 255
-2.94316 5.70702 22.2617 255 255 255
5.35379 4.03658 9.66324 255 255 255
6.03842 1.48502 8.45025 255 255 255
4.2729 2.09435 4.23282 255 255 255
-4.58138 6.63675 27.6797 255 255 255
4.65754 1.76926 4.96158 255 255 255
4.37879 2.03129 4.44764 255 255 255
4.38955 1.93464 4.43582 255 255 255
4.36875 2.12606 4.45788 255 255 255
5.8987 3.24947 8.45528 255 255 255
5.64162 4.03377 10.3169 255 255 255
4.33028 2.50157 4.50872 255 255 255
4.32062 2.59377 4.51909 255 255 255
6.1123 1.01293 8.45601 255 255 255
5.01927 5.98465 28.5487 255 255 255
5.82013 3.06715 8.45176 255 255 255
6.67276 4.66947 8.9609 255 255 255
6.97315 1.04655 8.37269 255 255 255
7.02161 1.43063 8.4431 255 255 255
3.61728 1.54008 4.54773 255 255 255
4.29272 1.90174 4.20778 255 255 255
5.39939 4.04919 7.82433 255 255 255
6.24766 4.17011 7.91684 255 255 255
5.99472 3.62719 6.39557 255 255 255
6.97681 0.993123 8.35426 255 255 255
5.42788 4.03605 7.85082 255 255 255
5.38885 3.4508 5.95408 255 255 255
4.35562 1.66757 4.26416 255 255 255
5.66756 4.03392 7.84803 255 255 255
5.07696 5.4202 21.5715 255 255 255
5.84785 3.63351 6.41519 255 255 255
3.96743 1.80461 3.95548 255 255 255
5.81016 4.0219 7.92341 255 255 255
4.10049 2.42823 4.00577 255 255 255
3.46764 1.64485 4.51491 255 255 255
3.94243 2.09111 3.9805 255 255 255
6.57306 1.48242 8.3988 255 255 255
3.7588 1.99629 3.99354 255 255 255
7.31588 4.65293 9.56773 255 255 255
3.41609 1.54337 4.52593 255 255 255
4.16921 1.71051 3.92629 255 255 255
5.97496 2.34835 8.39944 255 255 255
6.11829 0.953737 8.44097 255 255 255
7.55692 4.87807 21.4258 255 255 255
7.078 5.53834 22.0951 255 255 255
4.02264 1.61045 3.92975 255 255 255
4.16285 1.76928 3.93015 255 255 255
6.63991 3.759 7.42146 255 255 255
4.15971 1.80683 3.93477 255 255 255
4.15328 1.86571 3.9387 255 255 255
6.53339 1.49799 8.40602 255 255 255
3.46103 1.60948 4.51249 255 255 255
3.39551 1.61462 4.05027 255 255 255
3.54794 1.60764 4.00727 255 255 255
3.66101 1.67372 3.98776 255 255 255
3.61908 1.71438 4.01794 255 255 255
3.78207 1.70565 3.96943 255 255 255
4.01039 1.71343 3.95499 255 255 255
3.37829 1.77272 4.05093 255 255 255
3.57946 1.76718 4.00658 255 255 255
3.77668 1.76457 3.97213 255 255 255
3.37683 1.81211 4.05719 255 255 255
3.5729 1.86491 4.01356 255 255 255
3.76917 1.8614 3.97939 255 255 255
3.96185 1.86234 3.95444 255 255 255
3.16575 1.91899 4.10818 255 255 255
3.57074 1.90335 4.01878 255 255 255
3.76659 1.9001 3.98512 255 255 255
3.95889 1.89938 3.9593 255 255 255
4.15032 1.90315 3.94438 255 255 255
3.16287 1.97493 4.10161 255 255 255
3.36736 1.96742 4.05891 255 255 255
3.5663 1.96103 4.01918 255 255 255
3.76125 1.95729 3.9864 255 255 255
3.95336 1.95718 3.96283 255 255 255
4.1442 1.96075 3.94894 255 255 255
3.56394 1.99982 4.02457 255 255 255
3.79275 2.00341 4.00347 255 255 255
3.95061 1.99484 3.96834 255 255 255
4.14117 1.99832 3.95419 255 255 255
3.15908 2.07079 4.10436 255 255 255
3.55982 2.05553 4.02557 255 255 255
3.94497 2.05235 3.97215 255 255 255
4.13555 2.05557 3.95962 255 255 255
3.36009 2.10221 4.06884 255 255 255
3.55756 2.09455 4.03077 255 255 255
3.59231 2.10361 4.04317 255 255 255
3.75155 2.09009 4.00034 255 255 255
4.13201 2.09195 3.96385 255 255 255
3.55346 2.14977 4.03141 255 255 255
3.74673 2.14622 4.00279 255 255 255
3.93712 2.14606 3.98235 255 255 255
4.12612 2.14871 3.9685 255 255 255
3.55189 2.18924 4.03892 255 255 255
3.7446 2.18487 4.01002 255 255 255
3.93458 2.1846 3.98971 255 255 255
4.12354 2.18711 3.97628 255 255 255
3.54778 2.24401 4.04045 255 255 255
3.74005 2.23966 4.01338 255 255 255
3.92932 2.23863 3.99267 255 255 255
4.11831 2.24229 3.9815 255 255 255
3.73754 2.27732 4.01854 255 255 255
3.92696 2.27735 3.99993 255 255 255
3.96111 2.28815 4.01467 255 255 255
4.11497 2.28083 3.98838 255 255 255
3.34622 2.33865 4.07242 255 255 255
3.54118 2.33401 4.04469 255 255 255
3.73269 2.33009 4.02001 255 255 255
3.92181 2.3305 4.00261 255 255 255
4.10925 2.33307 3.99075 255 255 255
3.53963 2.37394 4.05305 255 255 255
3.7306 2.36926 4.02701 255 255 255
3.76417 2.37835 4.03899 255 255 255
3.91915 2.36857 4.00897 255 255 255
3.95287 2.3788 4.02225 255 255 255
4.10601 2.37291 3.99906 255 255 255
1.76255 4.15219 11.6218 255 255 255
2.22276 2.49181 12.5201 255 255 255
6.10414 0.961842 7.16139 255 255 255
2.02155 3.79758 11.7889 255 255 255
1.90561 4.5015 11.5214 255 255 255
2.21005 4.28965 8.16922 255 255 255
2.0456 4.37656 8.30903 255 255 255
2.9833 2.19613 4.18045 255 255 255
2.98135 2.23265 4.17774 255 255 255
3.18533 2.31377 4.13535 255 255 255
3.14721 2.34446 4.10163 255 255 255
3.18352 2.36879 4.13786 255 255 255
3.34519 2.38081 4.08251 255 255 255
3.38029 2.39539 4.10188 255 255 255
5.89358 5.55089 21.6603 255 255 255
2.97873 2.37362 4.16678 255 255 255
6.33937 0.982051 7.00553 255 255 255
15.5621 20.6929 124.692 255 255 255
1.88581 4.2264 12.7002 255 255 255
5.88637 2.11858 7.00054 255 255 255
3.42568 1.71436 4.99071 255 255 255
1.956 4.81641 10.9896 255 255 255
2.98107 2.27879 4.16289 255 255 255
3.14629 2.39232 4.11997 255 255 255
3.18113 2.40639 4.13911 255 255 255
6.78279 4.26295 18.3702 255 255 255
2.00497 4.23754 11.8092 255 255 255
2.07349 4.38419 8.30785 255 255 255
6.06776 1.58563 7.05375 255 255 255
2.68548 3.82765 7.09612 255 255 255
2.68579 3.88337 7.06312 255 255 255
6.32403 3.99162 13.8796 255 255 255
3.04474 3.56683 12.436 255 255 255
3.47392 3.22912 11.0217 255 255 255
2.10568 4.14371 11.5218 255 255 255
2.68539 4.06426 6.98911 255 255 255
7.37915 1.58146 8.11373 255 255 255
6.1485 2.35052 6.88804 255 255 255
7.19019 2.79035 8.21556 255 255 255
7.07567 2.84834 8.05513 255 255 255
6.72373 2.8136 7.12646 255 255 255
6.70349 2.8267 7.11594 255 255 255
6.88401 2.81528 7.04416 255 255 255
2.18011 4.23439 11.2435 255 255 255
2.19774 4.21995 10.9751 255 255 255
2.37826 4.64987 9.70988 255 255 255
8.41537 4.44961 22.104 255 255 255
6.96016 2.81063 11.3199 255 255 255
5.69793 2.06658 7.33206 255 255 255
6.69756 2.98583 11.3352 255 255 255
7.08162 4.13797 16.6002 255 255 255
6.16115 4.14796 14.4476 255 255 255
5.81118 1.07569 7.33124 255 255 255
7.50368 1.43116 7.81573 255 255 255
6.04057 1.43702 8.42983 255 255 255
5.96388 1.33098 7.24466 255 255 255
6.19917 1.3725 7.34159 255 255 255
6.14767 1.35678 7.07891 255 255 255
5.95785 1.36053 7.24163 255 255 255
7.30577 1.63203 7.78799 255 255 255
6.93065 1.72212 8.42259 255 255 255
5.66645 1.57383 7.4129 255 255 255
7.27346 1.70798 7.76611 255 255 255
7.42882 1.78274 8.22112 255 255 255
5.95647 1.62909 7.40024 255 255 255
2.90409 2.34624 12.0471 255 255 255
3.56822 2.28675 11.4666 255 255 255
8.84369 5.16695 28.1981 255 255 255
8.70891 4.92527 26.5901 255 255 255
10.1454 7.44641 42.1273 255 255 255
8.6789 3.62052 18.0701 255 255 255
8.67794 3.59158 17.8909 255 255 255
2.87243 2.43365 12.1323 255 255 255
3.59056 2.36114 11.5134 255 255 255
4.12329 2.34569 11.227 255 255 255
8.39474 4.37719 21.7681 255 255 255
8.20243 3.62539 17.2314 255 255 255
8.25903 3.05963 13.6878 255 255 255
8.25261 3.07058 13.5943 255 255 255
8.30318 3.34416 15.1001 255 255 255
8.27732 3.31795 14.9404 255 255 255
5.89423 1.82825 7.12173 255 255 255
7.82229 4.26089 19.384 255 255 255
6.96998 2.93255 11.9855 255 255 255
6.96235 3.00797 11.9243 255 255 255
6.72863 2.61563 10.0602 255 255 255
6.89571 4.21231 17.8094 255 255 255
6.64987 4.45035 18.9464 255 255 255
7.22718 4.10228 16.9472 255 255 255
6.99415 5.79841 25.1524 255 255 255
7.21728 3.90287 15.8155 255 255 255
6.64973 5.53856 23.6545 255 255 255
3.01763 3.26929 13.7814 255 255 255
6.76064 3.11619 11.8595 255 255 255
5.64018 2.06534 7.23878 255 255 255
6.99916 3.95076 15.4885 255 255 255
5.61453 2.12412 7.26664 255 255 255
5.91238 2.09595 7.04 255 255 255
6.37386 4.65512 17.9969 255 255 255
6.89506 3.7277 13.7349 255 255 255
5.63922 2.17374 7.31644 255 255 255
6.60928 3.24663 11.5382 255 255 255
6.92699 3.80932 13.8561 255 255 255
6.8061 3.55951 12.5434 255 255 255
7.10504 3.23169 11.1017 255 255 255
6.62058 3.64985 12.9082 255 255 255
6.7923 3.18563 10.9914 255 255 255
5.72164 4.47789 16.4963 255 255 255
6.25181 4.42105 16.1026 255 255 255
6.67079 3.55346 12.3716 255 255 255
6.58216 3.6702 12.8116 255 255 255
6.57201 3.2893 11.1125 255 255 255
6.71451 3.64059 12.3976 255 255 255
6.35663 3.66247 12.5205 255 255 255
6.5449 3.31898 11.0594 255 255 255
5.26855 5.0708 17.0065 255 255 255
2.66855 3.3659 11.0814 255 255 255
5.16582 4.73849 15.3614 255 255 255
2.74922 3.63519 11.6037 255 255 255
2.79433 3.42975 10.7182 255 255 255
4.09014 3.73123 11.1572 255 255 255
3.03608 3.46915 10.1562 255 255 255
2.9915 3.54993 10.0698 255 255 255
2.93096 3.52836 9.982 255 255 255
2.69751 3.76417 10.3307 255 255 255
2.75874 3.66974 10.0534 255 255 255
2.57912 3.94332 10.3886 255 255 255
2.91762 3.75179 9.60977 255 255 255
2.46342 4.17797 10.3703 255 255 255
2.75483 3.90623 9.65099 255 255 255
2.91258 3.84212 9.46245 255 255 255
2.69699 4.01909 9.7418 255 255 255
2.7544 3.95975 9.59681 255 255 255
2.90813 3.87615 9.36456 255 255 255
2.90652 3.98431 9.28702 255 255 255
2.9047 4.03245 9.23502 255 255 255
2.90273 4.07684 9.18113 255 255 255
2.75214 4.22087 9.2211 255 255 255
2.75142 4.32545 9.15249 255 255 255
2.49 4.56463 9.52615 255 255 255
2.55331 4.46719 9.32583 255 255 255
3.08802 3.18973 6.42574 255 255 255
2.24818 4.40971 8.75284 255 255 255
2.61481 3.80433 7.19759 255 255 255
